ply
format ascii 1.0
element vertex 1865
property float x
property float y
property float z
end_header
0.165817 -0.524676 0.0166839
0.165474 -0.525929 0.0167238
0.164868 -0.526354 0.0167373
0.16414 -0.526392 0.0167385
0.163471 -0.52662 0.0167458
0.162875 -0.527087 0.0167606
0.162192 -0.527274 0.0167666
0.161259 -0.526646 0.0167466
0.159969 -0.52484 0.0166892
0.159173 -0.524649 0.0166831
0.15862 -0.525257 0.0167024
0.158281 -0.526585 0.0167447
0.157186 -0.5254 0.016707
0.155935 -0.523679 0.0166522
0.155196 -0.523666 0.0166518
0.154833 -0.52493 0.016692
0.154548 -0.526473 0.0167411
0.153623 -0.525838 0.0167209
0.152679 -0.525133 0.0166985
0.151657 -0.524151 0.0166673
0.150794 -0.523713 0.0166533
0.150088 -0.523816 0.0166566
0.149775 -0.525302 0.0167039
0.148973 -0.525078 0.0166967
0.148 -0.524245 0.0166702
0.147094 -0.523642 0.0166511
0.146419 -0.52386 0.016658
0.14612 -0.525429 0.0167079
0.145449 -0.525676 0.0167157
0.144924 -0.526452 0.0167404
0.143934 -0.525538 0.0167113
0.143319 -0.525989 0.0167257
0.142526 -0.525793 0.0167195
0.141857 -0.52605 0.0167276
0.14093 -0.525349 0.0167053
0.140226 -0.525479 0.0167095
0.139463 -0.525385 0.0167065
0.138685 -0.525237 0.0167018
0.137597 -0.523904 0.0166594
0.136736 -0.523425 0.0166442
0.135978 -0.523337 0.0166414
0.135193 -0.523149 0.0166354
0.13449 -0.523271 0.0166393
0.133651 -0.522868 0.0166265
0.13289 -0.522765 0.0166232
0.131259 -0.519217 0.0165103
0 -0 0
0.103103 -0.412425 0.0131145
0.101541 -0.408473 0.0129888
0.0997286 -0.403464 0.0128296
0.0980578 -0.398973 0.0126868
0.096371 -0.394365 0.0125402
0.0952286 -0.391944 0.0124632
0.0939372 -0.388877 0.0123657
0.0931962 -0.388067 0.01234
0.0920746 -0.385654 0.0122632
0.0912374 -0.384409 0.0122237
0.0902815 -0.382648 0.0121677
0.089347 -0.380956 0.0121138
0.0885356 -0.379772 0.0120762
0.0880038 -0.37978 0.0120764
0.0874356 -0.37963 0.0120717
0.0868933 -0.379591 0.0120705
0.0862636 -0.379168 0.012057
0.0857124 -0.379087 0.0120544
0.0852343 -0.37933 0.0120621
0.0845043 -0.378448 0.0120341
0.0842499 -0.379698 0.0120738
0.0839233 -0.380636 0.0121037
0.083998 -0.383419 0.0121922
0.0835991 -0.384062 0.0122126
0.0831572 -0.384514 0.012227
0 -0 0
0 -0 0
0.109986 -0.518681 0.0164933
0.110031 -0.522351 0.01661
0.109424 -0.52296 0.0166294
0.109055 -0.524722 0.0166854
0.108018 -0.523271 0.0166393
0.107058 -0.522172 0.0166043
0.106428 -0.522682 0.0166206
0.105536 -0.521904 0.0165958
0.104923 -0.522504 0.0166149
0.103904 -0.521077 0.0165695
0.10302 -0.52031 0.0165451
0.102445 -0.521101 0.0165703
0.101639 -0.520727 0.0165584
0.100892 -0.520645 0.0165558
0.100088 -0.520269 0.0165438
0.0993215 -0.520085 0.016538
0.0987232 -0.520784 0.0165602
0.0981353 -0.521549 0.0165845
0.0971542 -0.52022 0.0165422
0.096018 -0.518034 0.0164727
0.0951343 -0.517187 0.0164458
0.0947232 -0.518916 0.0165008
0.0945766 -0.522133 0.0166031
0.0934087 -0.519717 0.0165263
0.0923427 -0.517835 0.0164664
0.0916518 -0.518042 0.016473
0.0913683 -0.520575 0.0165535
0.090955 -0.522403 0.0166117
0.0905849 -0.52451 0.0166787
0.0895937 -0.523027 0.0166315
0.0882984 -0.519729 0.0165266
0.0875887 -0.519851 0.0165305
0.086799 -0.519497 0.0165193
0.0859148 -0.518566 0.0164897
0.0848825 -0.516718 0.0164309
0.0842726 -0.517432 0.0164536
0.083768 -0.518809 0.0164974
0.0828104 -0.517382 0.016452
0.0818259 -0.515759 0.0164004
0.0810349 -0.515338 0.016387
0.0800855 -0.513892 0.016341
0.0794433 -0.51441 0.0163575
0.0790231 -0.516388 0.0164204
0.0785636 -0.518143 0.0164762
0.0779954 -0.519208 0.0165101
0.0774539 -0.520471 0.0165502
0.076708 -0.520373 0.0165471
0.0757482 -0.518807 0.0164973
0.0745964 -0.515884 0.0164044
0.0740092 -0.516846 0.016435
0.0732372 -0.516523 0.0164247
0.0722751 -0.51484 0.0163712
0.0716444 -0.515507 0.0163924
0.0712046 -0.517577 0.0164582
0.0701253 -0.514991 0.016376
0.0694882 -0.515634 0.0163964
0.0688434 -0.516233 0.0164155
0.0679466 -0.514933 0.0163741
0.0665482 -0.509765 0.0162098
0.0665431 -0.515272 0.0163849
0.0659514 -0.516308 0.0164179
0.0651219 -0.515485 0.0163917
0.0641904 -0.513827 0.016339
0.0630068 -0.51009 0.0162201
0.0621568 -0.508999 0.0161855
0.0617162 -0.511275 0.0162578
0.0613679 -0.514378 0.0163565
0.0608393 -0.516025 0.0164089
0.0602541 -0.517226 0.0164471
0.0592727 -0.515014 0.0163767
0.0583108 -0.512919 0.0163101
0.057509 -0.512197 0.0162871
0.0566249 -0.510715 0.01624
0.0560188 -0.511734 0.0162724
0.0554394 -0.513027 0.0163135
0.0549314 -0.515024 0.016377
0.0541495 -0.514471 0.0163594
0.0536491 -0.516613 0.0164276
0.0528516 -0.515915 0.0164054
0.0522215 -0.516854 0.0164352
0.0509859 -0.511742 0.0162727
0.0493274 -0.502178 0.0159686
0.0493936 -0.510151 0.0162221
0.0483214 -0.506428 0.0161037
0.0476494 -0.506849 0.0161171
0.0478184 -0.516365 0.0164197
0.0468887 -0.514127 0.0163485
0.0456928 -0.508855 0.0161809
0.0450605 -0.509791 0.0162106
0.0457995 -0.526522 0.0167426
0.0438979 -0.512948 0.016311
0 -0 0
0.0428617 -0.517846 0.0164668
0.0416695 -0.512136 0.0162852
0.0402058 -0.502831 0.0159893
0.0394292 -0.50194 0.015961
0.0395459 -0.512595 0.0162998
0.0394533 -0.520883 0.0165633
0.0387022 -0.520625 0.0165551
0.0369683 -0.506883 0.0161181
0.0360714 -0.504302 0.0160361
0.035595 -0.507613 0.0161414
0.0350054 -0.509413 0.0161986
0.0340475 -0.505818 0.0160843
0 -0 0
0.031727 -0.491881 0.0156411
0 -0 0
0.0313072 -0.507486 0.0161373
0 -0 0
0.0294435 -0.500056 0.0159011
0 -0 0
0.0285755 -0.50964 0.0162058
0.0281562 -0.51507 0.0163785
0.0268672 -0.504459 0.0160411
0.0264181 -0.509469 0.0162004
0.0256842 -0.509112 0.016189
0 -0 0
0.0237627 -0.498812 0.0158615
0 -0 0
0.0232662 -0.519008 0.0165037
0 -0 0
0 -0 0
0 -0 0
0 -0 0
0 -0 0
0 -0 0
0 -0 0
0 -0 0
0 -0 0
0 -0 0
0 -0 0
0 -0 0
0 -0 0
0 -0 0
0 -0 0
0 -0 0
0 -0 0
0 -0 0
0 -0 0
0 -0 0
0 -0 0
0 -0 0
0 -0 0
0 -0 0
0 -0 0
0 -0 0
0 -0 0
0 -0 0
0 -0 0
0 -0 0
0 -0 0
-0 -0 0
-0 -0 0
0 -0 0
0.355159 -0.496641 0.0150939
0.362209 -0.507497 0.0154238
0.362242 -0.508545 0.0154557
0.360882 -0.507637 0.0154281
0.359695 -0.50697 0.0154078
0.356603 -0.503609 0.0153057
0.360179 -0.50967 0.0154899
0.359502 -0.509727 0.0154916
0.360112 -0.511611 0.0155489
0.358201 -0.509913 0.0154973
0.359192 -0.512349 0.0155713
0.360923 -0.515853 0.0156778
0.363644 -0.520787 0.0158277
0.36625 -0.525577 0.0159733
0.366745 -0.527351 0.0160272
0.365789 -0.527041 0.0160178
0.367516 -0.530604 0.0161261
0.369594 -0.534688 0.0162502
0 -0 0
0 -0 0
0.319989 -0.465766 0.0141556
0.312605 -0.455951 0.0138573
0.306846 -0.44847 0.0136299
0.304369 -0.445765 0.0135477
0.303812 -0.445868 0.0135508
0.312838 -0.460063 0.0139822
0 -0 0
0 -0 0
0 -0 0
0 -0 0
0.382155 -0.567868 0.0172586
0.370177 -0.551221 0.0167527
0.371093 -0.553742 0.0168293
0.368499 -0.551027 0.0167468
0.374712 -0.561498 0.017065
0.368676 -0.553619 0.0168256
0.364198 -0.548052 0.0166564
0.364387 -0.549498 0.0167003
0.372293 -0.562611 0.0170989
0.374749 -0.567529 0.0172483
0.372637 -0.565534 0.0171877
0.363503 -0.552851 0.0168022
0 -0 0
0.366953 -0.560493 0.0170345
0.361018 -0.552614 0.016795
0.361186 -0.554062 0.0168391
0.359189 -0.55219 0.0167822
0.36461 -0.561738 0.0170723
0 -0 0
0.37174 -0.575213 0.0174819
0.3637 -0.563999 0.017141
0.361729 -0.562166 0.0170854
0 -0 0
0.356984 -0.557227 0.0169352
0 -0 0
0 -0 0
0 -0 0
0.355071 -0.559146 0.0169936
0 -0 0
0 -0 0
0 -0 0
0.350887 -0.557492 0.0169433
0.352382 -0.56112 0.0170536
0 -0 0
0 -0 0
0.347538 -0.557146 0.0169328
0.348571 -0.560065 0.0170215
0.345776 -0.556831 0.0169232
0.347303 -0.560558 0.0170365
0.347194 -0.561657 0.0170699
0.344156 -0.55801 0.016959
0.342528 -0.556639 0.0169174
0.343673 -0.559779 0.0170128
0.34338 -0.560584 0.0170373
0.340155 -0.556596 0.0169161
0.338712 -0.555511 0.0168831
0.334167 -0.549324 0.016695
0.339451 -0.559302 0.0169983
0.338514 -0.559053 0.0169907
0.337126 -0.558055 0.0169604
0.33288 -0.552311 0.0167858
0.337908 -0.561964 0.0170792
0.330098 -0.550261 0.0167235
0.329045 -0.549794 0.0167093
0.329045 -0.551087 0.0167486
0.328429 -0.551354 0.0167567
0.332251 -0.55909 0.0169918
0.327842 -0.552978 0.0168061
0.325458 -0.550261 0.0167235
0.327164 -0.554463 0.0168512
0.326335 -0.554379 0.0168487
0.326907 -0.556679 0.0169186
0.32616 -0.556738 0.0169204
0.320417 -0.548252 0.0166625
0 -0 0
0 -0 0
0.260788 -0.449465 0.0136601
0.25676 -0.443597 0.0134818
0.256517 -0.444255 0.0135018
0 -0 0
0 -0 0
0 -0 0
0.312872 -0.547181 0.0166299
0.308807 -0.541404 0.0164543
0.311162 -0.54688 0.0166208
0.31057 -0.547191 0.0166302
0 -0 0
0 -0 0
0 -0 0
0.256416 -0.456295 0.0138677
0 -0 0
0 -0 0
0 -0 0
0.250431 -0.450148 0.0136809
0.2471 -0.445284 0.0135331
0.24643 -0.445204 0.0135306
0.245628 -0.444886 0.013521
0.245338 -0.445494 0.0135395
0.244995 -0.44601 0.0135551
0.246634 -0.450144 0.0136808
0.252738 -0.462472 0.0140554
0 -0 0
0 -0 0
0 -0 0
0.296223 -0.547676 0.016645
0.294178 -0.545311 0.0165731
0.293401 -0.545292 0.0165725
0.293089 -0.546139 0.0165982
0.294118 -0.549493 0.0167002
0.293783 -0.550313 0.0167251
0.293999 -0.552171 0.0167816
0.293105 -0.551949 0.0167748
0.291995 -0.551318 0.0167557
0.290825 -0.550569 0.0167329
0.289401 -0.549335 0.0166954
0.288288 -0.548685 0.0166756
0.286426 -0.546603 0.0166123
0.286615 -0.548436 0.016668
0.285768 -0.548289 0.0166636
0.28433 -0.547003 0.0166245
0.283717 -0.547305 0.0166337
0.284624 -0.550548 0.0167322
0.284457 -0.551723 0.016768
0.283011 -0.550419 0.0167283
0.280477 -0.546987 0.016624
0.279822 -0.547208 0.0166307
0.279165 -0.547427 0.0166374
0.278504 -0.547641 0.0166439
0.277102 -0.546392 0.016606
0.276399 -0.546521 0.0166099
0.275904 -0.547063 0.0166263
0.275542 -0.54787 0.0166509
0.274703 -0.547733 0.0166467
0.274399 -0.548665 0.016675
0.273715 -0.548838 0.0166803
0.272952 -0.548856 0.0166808
0.271955 -0.5484 0.016667
0.271884 -0.549815 0.01671
0.269977 -0.547514 0.01664
0.268709 -0.546502 0.0166093
0.268256 -0.547143 0.0166288
0.267679 -0.547535 0.0166407
0.267287 -0.548309 0.0166642
0.26632 -0.547906 0.0166519
0.26432 -0.545366 0.0165748
0.262123 -0.542407 0.0164848
0.262724 -0.545235 0.0165708
0.263193 -0.547808 0.016649
0.262274 -0.547496 0.0166395
0.261319 -0.547107 0.0166277
0.259195 -0.544262 0.0165412
0.257632 -0.54258 0.0164901
0.256359 -0.541501 0.0164573
0.25656 -0.543539 0.0165192
0.255808 -0.543564 0.01652
0.254686 -0.542802 0.0164968
0.253346 -0.541567 0.0164593
0.252146 -0.540627 0.0164307
0.25108 -0.539968 0.0164107
0.250937 -0.541296 0.0164511
0.2498 -0.540482 0.0164263
0.249127 -0.54067 0.016432
0.248786 -0.541581 0.0164597
0.24803 -0.541591 0.01646
0.246723 -0.540396 0.0164237
0.245459 -0.539287 0.01639
0.244859 -0.539635 0.0164006
0.243952 -0.539306 0.0163906
0.24286 -0.538566 0.0163681
0.241488 -0.537197 0.0163265
0.241829 -0.539643 0.0164008
0.24059 -0.538567 0.0163681
0.239628 -0.538106 0.0163541
0.238129 -0.536432 0.0163032
0.237564 -0.536859 0.0163162
0.236946 -0.537167 0.0163256
0.237058 -0.53914 0.0163855
0.236186 -0.538879 0.0163776
0.236266 -0.540794 0.0164358
0.235085 -0.539827 0.0164064
0.234463 -0.540143 0.016416
0.232976 -0.53846 0.0163649
0.232628 -0.539408 0.0163937
0.233009 -0.542057 0.0164742
0.23167 -0.54071 0.0164333
0.229562 -0.537554 0.0163373
0.227888 -0.535395 0.0162717
0.227423 -0.536072 0.0162923
0.227449 -0.537915 0.0163483
0.227166 -0.539038 0.0163824
0.227171 -0.540853 0.0164376
0.226383 -0.540786 0.0164356
0.224977 -0.539237 0.0163885
0.223148 -0.536662 0.0163102
0.222826 -0.537704 0.0163419
0.222644 -0.539093 0.0163841
0.221617 -0.538438 0.0163642
0.220943 -0.53864 0.0163704
0.22004 -0.538282 0.0163595
0.218633 -0.536686 0.016311
0.217785 -0.536453 0.0163039
0.217708 -0.538127 0.0163547
0.216744 -0.537612 0.0163391
0.215588 -0.536614 0.0163088
0.214841 -0.536632 0.0163093
0.213951 -0.536292 0.016299
0.213441 -0.536905 0.0163176
0.212701 -0.536941 0.0163187
0.212149 -0.537453 0.0163343
0.211194 -0.536946 0.0163189
0.210863 -0.538027 0.0163517
0.2105 -0.539033 0.0163823
0.209821 -0.539236 0.0163884
0.208531 -0.537862 0.0163467
0.206767 -0.535253 0.0162674
0.205846 -0.534812 0.016254
0.205409 -0.535633 0.0162789
0.205021 -0.536588 0.016308
0.20374 -0.535203 0.0162659
0.202739 -0.534548 0.016246
0.20157 -0.533441 0.0162123
0.200953 -0.533795 0.0162231
0.199968 -0.533169 0.0162041
0.198826 -0.532118 0.0161721
0.19691 -0.528979 0.0160767
0.195904 -0.528269 0.0160551
0.194792 -0.527268 0.0160247
0.193561 -0.525938 0.0159843
0.192331 -0.524599 0.0159436
0.191316 -0.523839 0.0159205
0.190298 -0.523062 0.0158969
0.189197 -0.522054 0.0158663
0.188134 -0.521141 0.0158385
0.187694 -0.521954 0.0158632
0.187221 -0.522682 0.0158853
0.186896 -0.523829 0.0159202
0.185928 -0.523175 0.0159003
0.185198 -0.523192 0.0159008
0.184279 -0.522669 0.015885
0.183554 -0.522696 0.0158858
0.182836 -0.522743 0.0158872
0.182059 -0.522622 0.0158835
0.18113 -0.52206 0.0158664
0.180568 -0.522559 0.0158816
0.179946 -0.522885 0.0158915
0.179438 -0.523544 0.0159115
0.178876 -0.524055 0.0159271
0.178048 -0.523785 0.0159189
0.177375 -0.523971 0.0159245
0.17594 -0.521898 0.0158615
0.175629 -0.523158 0.0158998
0.175166 -0.523972 0.0159246
0.174624 -0.524554 0.0159422
0.173263 -0.522673 0.0158851
0.17204 -0.521191 0.01584
0.171543 -0.521908 0.0158618
0.170917 -0.522236 0.0158718
0.169938 -0.521486 0.015849
0.168985 -0.520807 0.0158284
0.168257 -0.520818 0.0158287
0.167962 -0.522176 0.01587
0.167446 -0.522857 0.0158907
0.166708 -0.522846 0.0158903
0.165681 -0.521926 0.0158624
0.165056 -0.522268 0.0158728
0.164286 -0.522153 0.0158693
0.163631 -0.522404 0.0158769
0.163 -0.522735 0.0158869
0.162241 -0.522656 0.0158846
0.161592 -0.522933 0.015893
0.160857 -0.522931 0.0158929
0.1601 -0.522861 0.0158908
0.158945 -0.521481 0.0158489
0.157984 -0.520729 0.015826
0.157629 -0.521976 0.0158639
0.157229 -0.523086 0.0158976
0.156194 -0.522084 0.0158672
0.154952 -0.520378 0.0158153
0.154205 -0.520324 0.0158137
0.153991 -0.522076 0.0158669
0.153451 -0.522737 0.015887
0.152848 -0.523187 0.0159007
0.152024 -0.522882 0.0158914
0.151289 -0.522882 0.0158914
0.150218 -0.521711 0.0158558
0.149595 -0.522097 0.0158676
0.149037 -0.522713 0.0158863
0.148433 -0.523172 0.0159003
0.147176 -0.521326 0.0158441
0.146292 -0.520786 0.0158277
0.145325 -0.519943 0.0158021
0.145166 -0.522 0.0158646
0.144327 -0.52162 0.0158531
0.143951 -0.522915 0.0158924
0.143031 -0.522239 0.0158719
0.142474 -0.522887 0.0158916
0.141777 -0.523027 0.0158958
0.141317 -0.524047 0.0159268
0.140385 -0.52332 0.0159047
0.139572 -0.523029 0.0158959
0.138777 -0.522802 0.015889
0.137816 -0.521944 0.0158629
0.136888 -0.521205 0.0158405
0.135898 -0.520218 0.0158105
0.135475 -0.521404 0.0158465
0.134919 -0.522086 0.0158672
0.134236 -0.522285 0.0158733
0.132983 -0.520251 0.0158115
0.132178 -0.519963 0.0158027
0.130499 -0.51621 0.0156886
0 -0 0
0.103537 -0.414161 0.0125872
0.101578 -0.408621 0.0124188
0.0994245 -0.402234 0.0122247
0.0974978 -0.396694 0.0120563
0.0953288 -0.3901 0.0118559
0.0936078 -0.385273 0.0117092
0.0925674 -0.383207 0.0116464
0.09168 -0.381754 0.0116023
0.0907191 -0.379976 0.0115482
0.090177 -0.379942 0.0115472
0.089613 -0.379814 0.0115433
0.0889312 -0.379183 0.0115241
0.0880085 -0.377511 0.0114733
0.0874009 -0.377178 0.0114632
0.0869429 -0.377491 0.0114727
0.086273 -0.376881 0.0114542
0.0856107 -0.376298 0.0114364
0.0850383 -0.376106 0.0114306
0.0847407 -0.377133 0.0114618
0.0840254 -0.376303 0.0114366
0.0836249 -0.376881 0.0114542
0.0830984 -0.376895 0.0114546
0.0830944 -0.379295 0.0115275
0.0826066 -0.379502 0.0115338
0.0821321 -0.379774 0.0115421
0.0819385 -0.381357 0.0115902
0 -0 0
0 -0 0
0 -0 0
0.109902 -0.525247 0.0159633
0.108082 -0.520039 0.015805
0.107509 -0.520803 0.0158282
0.106383 -0.518879 0.0157698
0.105657 -0.518898 0.0157703
0.104924 -0.51888 0.0157698
0.104022 -0.518017 0.0157436
0.102891 -0.515997 0.0156822
0.102203 -0.516182 0.0156878
0.101726 -0.517448 0.0157263
0.101035 -0.517628 0.0157318
0.100179 -0.516969 0.0157117
0.099322 -0.516288 0.015691
0.0986874 -0.516764 0.0157055
0.0980856 -0.51742 0.0157254
0.097406 -0.517673 0.0157331
0.0964606 -0.516506 0.0156976
0.0954388 -0.514909 0.0156491
0.0947397 -0.515042 0.0156532
0.0941913 -0.516002 0.0156823
0.0931652 -0.514341 0.0156318
0.0928801 -0.516776 0.0157058
0.0916907 -0.514178 0.0156269
0.0911775 -0.515362 0.0156629
0.0906097 -0.516253 0.0156899
0.0905951 -0.520336 0.015814
0.0898531 -0.520273 0.0158121
0.0887094 -0.517864 0.0157389
0.0879045 -0.51741 0.0157251
0.0871818 -0.517436 0.0157259
0.0862957 -0.516484 0.015697
0.0848476 -0.512125 0.0155645
0.0840981 -0.511943 0.015559
0.0835355 -0.512906 0.0155882
0.083331 -0.516103 0.0156854
0.0821519 -0.513268 0.0155992
0.0813215 -0.512579 0.0155783
0.0807447 -0.513492 0.015606
0.0799598 -0.513086 0.0155937
0.0790762 -0.512033 0.0155617
0.0786508 -0.513955 0.0156201
0.0779813 -0.514303 0.0156307
0.0772363 -0.514154 0.0156262
0.0770435 -0.517714 0.0157344
0.0764087 -0.518342 0.0157535
0.075399 -0.516416 0.0156949
0.0744895 -0.515145 0.0156563
0.0736145 -0.51409 0.0156242
0.0723605 -0.51034 0.0155103
0.0717292 -0.510952 0.0155288
0.0711495 -0.511947 0.0155591
0.0705177 -0.512583 0.0155784
0.0698317 -0.512835 0.0155861
0.0691597 -0.513196 0.0155971
0.0685733 -0.514207 0.0156278
0.0681112 -0.516181 0.0156878
0.067311 -0.515608 0.0156703
0.065654 -0.508387 0.0154509
0.0652479 -0.510801 0.0155242
0.0646816 -0.512 0.0155607
0.063754 -0.510334 0.0155101
0.0624515 -0.505595 0.015366
0.0620236 -0.507909 0.0154363
0.0618968 -0.512771 0.0155841
0.0613638 -0.514343 0.0156319
0.0605891 -0.513903 0.0156185
0.0599429 -0.514555 0.0156383
0.0590354 -0.512953 0.0155896
0.0578091 -0.508506 0.0154545
0.0572321 -0.509731 0.0154917
0.056523 -0.509796 0.0154937
0.0557332 -0.509125 0.0154733
0.0550312 -0.50925 0.0154771
0.0546764 -0.512632 0.0155799
0.053831 -0.511445 0.0155438
0.0534643 -0.514834 0.0156468
0.0525728 -0.513194 0.015597
0.0514936 -0.50965 0.0154893
0.0509816 -0.511699 0.0155515
0.0490258 -0.499108 0.0151689
0.0485952 -0.501905 0.0152539
0.0490276 -0.513829 0.0156163
0.048227 -0.512993 0.0155909
0.0473671 -0.511491 0.0155452
0.0462417 -0.507032 0.0154097
0.0453116 -0.50461 0.0153361
0.0451269 -0.510543 0.0155164
0.0444425 -0.510922 0.0155279
0.0433156 -0.506143 0.0153827
0.0423163 -0.502721 0.0152787
0.0417708 -0.504666 0.0153378
0.0412319 -0.506759 0.0154014
0.0403341 -0.504437 0.0153308
0.0395598 -0.503603 0.0153055
0.0395655 -0.51285 0.0155865
0.0399385 -0.527289 0.0160254
0.0382044 -0.513929 0.0156193
0.0371565 -0.509463 0.0154836
0.0359945 -0.503226 0.015294
0.034632 -0.493881 0.01501
0.033912 -0.493503 0.0149985
0.0337724 -0.501731 0.0152486
0.0335218 -0.508627 0.0154582
0 -0 0
0 -0 0
0.0313624 -0.50838 0.0154507
0.0309319 -0.513089 0.0155938
0.0302538 -0.513818 0.0156159
0 -0 0
0.0291932 -0.520657 0.0158238
0.0278843 -0.510098 0.0155029
0.0270922 -0.508684 0.0154599
0 -0 0
0 -0 0
0.0246818 -0.503261 0.0152951
0.0239175 -0.502062 0.0152587
0.0225509 -0.487763 0.0148241
0.0222835 -0.497088 0.0151075
0.0215221 -0.49564 0.0150635
0.0208227 -0.495569 0.0150613
0 -0 0
0 -0 0
0 -0 0
0 -0 0
0 -0 0
0 -0 0
0 -0 0
0 -0 0
0 -0 0
0 -0 0
0 -0 0
0 -0 0
0 -0 0
0 -0 0
0 -0 0
0 -0 0
0 -0 0
0 -0 0
0 -0 0
0 -0 0
0 -0 0
0 -0 0
0 -0 0
0 -0 0
0 -0 0
0 -0 0
0 -0 0
0 -0 0
0 -0 0
-0 -0 0
-0 -0 0
0 -0 0
0.356001 -0.497819 0.0144295
0.36281 -0.50834 0.0147344
0.362742 -0.509247 0.0147607
0.359198 -0.505268 0.0146454
0.358202 -0.504865 0.0146337
0.35857 -0.506387 0.0146778
0.358017 -0.506611 0.0146843
0.358132 -0.507784 0.0147183
0.358447 -0.509245 0.0147607
0.359245 -0.511399 0.0148231
0.359226 -0.512398 0.0148521
0.360039 -0.514589 0.0149156
0.363856 -0.521091 0.015104
0.365354 -0.524291 0.0151968
0.366435 -0.526904 0.0152725
0.367545 -0.529571 0.0153498
0.369453 -0.533399 0.0154608
0.371282 -0.53713 0.0155689
0.364246 -0.528024 0.015305
0 -0 0
0.322939 -0.470059 0.0136249
0.312099 -0.455212 0.0131945
0.307674 -0.44968 0.0130342
0.302313 -0.442754 0.0128334
0.302136 -0.443407 0.0128523
0.31184 -0.458595 0.0132926
0 -0 0
0.32985 -0.487094 0.0141186
0 -0 0
0 -0 0
0 -0 0
0.371501 -0.553192 0.0160345
0.370517 -0.552883 0.0160255
0.360754 -0.539447 0.0156361
0.363682 -0.54497 0.0157962
0.375053 -0.563194 0.0163244
0.368191 -0.55406 0.0160597
0.359416 -0.542001 0.0157101
0.361818 -0.546782 0.0158487
0.366877 -0.555608 0.0161045
0.362388 -0.54998 0.0159414
0.360511 -0.5483 0.0158927
0.368725 -0.561993 0.0162896
0.367927 -0.561982 0.0162893
0.361185 -0.55287 0.0160252
0.357697 -0.54871 0.0159046
0.359226 -0.552248 0.0160071
0.357462 -0.550725 0.015963
0.367881 -0.568007 0.0164639
0.365228 -0.565137 0.0163807
0.365513 -0.56681 0.0164292
0 -0 0
0.358149 -0.557822 0.0161687
0.357362 -0.557817 0.0161685
0.354525 -0.554605 0.0160754
0.366631 -0.574806 0.016661
0 -0 0
0 -0 0
0.350483 -0.553146 0.0160332
0.342361 -0.541529 0.0156964
0 -0 0
0.349239 -0.554874 0.0160833
0.34992 -0.5572 0.0161507
0.345998 -0.55219 0.0160054
0.34526 -0.552251 0.0160072
0.348755 -0.559098 0.0162057
0.343946 -0.552633 0.0160183
0.340212 -0.54787 0.0158802
0.348738 -0.562875 0.0163152
0.348371 -0.563561 0.016335
0.343885 -0.557572 0.0161614
0.34131 -0.55466 0.016077
0.339979 -0.553762 0.016051
0 -0 0
0.340646 -0.557399 0.0161564
0.331799 -0.544175 0.0157731
0.341329 -0.561097 0.0162636
0.338806 -0.558239 0.0161808
0.337832 -0.557927 0.0161717
0.335445 -0.555274 0.0160948
0.336763 -0.558755 0.0161957
0.330991 -0.550462 0.0159554
0.330334 -0.550654 0.0159609
0.326185 -0.545016 0.0157975
0.325815 -0.545678 0.0158167
0.326055 -0.547369 0.0158657
0.326556 -0.549507 0.0159277
0.32854 -0.554155 0.0160624
0.328732 -0.555797 0.01611
0.329 -0.557574 0.0161615
0.327499 -0.556356 0.0161262
0.323052 -0.550114 0.0159453
0.324762 -0.554353 0.0160681
0 -0 0
0 -0 0
0.264148 -0.454155 0.0131639
0.261813 -0.45123 0.0130791
0.258157 -0.44601 0.0129278
0.254872 -0.441407 0.0127944
0.256686 -0.445632 0.0129168
0 -0 0
0 -0 0
0 -0 0
0.307291 -0.538746 0.0156158
0.310439 -0.545609 0.0158147
0.313183 -0.551793 0.015994
0 -0 0
0 -0 0
0 -0 0
0 -0 0
0 -0 0
0 -0 0
0 -0 0
0.250104 -0.44956 0.0130307
0.248576 -0.447945 0.0129839
0.246979 -0.446198 0.0129332
0.246218 -0.445953 0.0129261
0.245726 -0.446199 0.0129332
0.245344 -0.446645 0.0129462
0.246083 -0.449139 0.0130185
0.251943 -0.461016 0.0133627
0 -0 0
0 -0 0
0 -0 0
0.295032 -0.545473 0.0158108
0.293738 -0.544496 0.0157824
0.291855 -0.542418 0.0157222
0.290625 -0.541547 0.015697
0.291182 -0.54401 0.0157683
0.29268 -0.548246 0.0158911
0.293234 -0.550735 0.0159633
0.292499 -0.550807 0.0159654
0.2912 -0.549816 0.0159366
0.290577 -0.550099 0.0159448
0.289275 -0.549095 0.0159157
0.286971 -0.546179 0.0158312
0.285308 -0.54447 0.0157817
0.284481 -0.544351 0.0157782
0.284091 -0.545071 0.0157991
0.283282 -0.544988 0.0157967
0.282576 -0.545104 0.0158001
0.283094 -0.547588 0.0158721
0.282641 -0.548201 0.0158898
0.281118 -0.546737 0.0158474
0.278869 -0.543849 0.0157637
0.278154 -0.543946 0.0157665
0.27729 -0.54375 0.0157608
0.277029 -0.54474 0.0157895
0.2758 -0.543825 0.015763
0.275554 -0.544851 0.0157927
0.275011 -0.545292 0.0158055
0.274723 -0.546243 0.0158331
0.27401 -0.546351 0.0158362
0.272901 -0.545669 0.0158165
0.272311 -0.546025 0.0158267
0.271324 -0.545582 0.0158139
0.270799 -0.546069 0.015828
0.269272 -0.544534 0.0157835
0.268056 -0.543618 0.015757
0.266524 -0.542058 0.0157118
0.266114 -0.542774 0.0157325
0.265057 -0.542172 0.0157151
0.265552 -0.54475 0.0157898
0.263978 -0.543086 0.0157416
0.26143 -0.539404 0.0156348
0.261413 -0.540937 0.0156793
0.260715 -0.541067 0.0156831
0.261207 -0.543674 0.0157586
0.259647 -0.542011 0.0157104
0.258974 -0.542198 0.0157158
0.257252 -0.54018 0.0156573
0.256509 -0.540214 0.0156583
0.255276 -0.539215 0.0156294
0.255203 -0.540665 0.0156714
0.254607 -0.541013 0.0156815
0.253623 -0.540536 0.0156676
0.252587 -0.539945 0.0156505
0.251154 -0.5385 0.0156086
0.250024 -0.537696 0.0155853
0.248622 -0.536303 0.015545
0.246728 -0.533834 0.0154734
0.245918 -0.533704 0.0154696
0.24615 -0.535843 0.0155316
0.245883 -0.536905 0.0155624
0.245071 -0.536779 0.0155587
0.243847 -0.535746 0.0155288
0.243888 -0.537495 0.0155795
0.242109 -0.535232 0.0155139
0.24145 -0.535439 0.0155199
0.240705 -0.535455 0.0155204
0.240687 -0.537095 0.0155679
0.23948 -0.536083 0.0155386
0.238016 -0.534485 0.0154923
0.237106 -0.534127 0.0154819
0.235881 -0.533056 0.0154509
0.235579 -0.534069 0.0154802
0.234735 -0.533856 0.015474
0.234308 -0.534593 0.0154954
0.234311 -0.536321 0.0155455
0.234904 -0.539412 0.0156351
0.233199 -0.53723 0.0155718
0.231333 -0.534663 0.0154974
0.231655 -0.537151 0.0155695
0.231495 -0.538535 0.0156096
0.230524 -0.538035 0.0155952
0.228932 -0.536078 0.0155384
0.227348 -0.534127 0.0154819
0.226755 -0.534498 0.0154926
0.22631 -0.535222 0.0155136
0.225889 -0.536007 0.0155364
0.22552 -0.536922 0.0155629
0.225246 -0.53807 0.0155962
0.222754 -0.53391 0.0154756
0.221507 -0.532714 0.0154409
0.220789 -0.532789 0.0154431
0.220557 -0.53404 0.0154794
0.219637 -0.533629 0.0154674
0.219441 -0.534978 0.0155066
0.219025 -0.535799 0.0155303
0.21832 -0.535917 0.0155338
0.217943 -0.536842 0.0155606
0.21694 -0.536229 0.0155428
0.216169 -0.536186 0.0155416
0.215113 -0.535434 0.0155198
0.214094 -0.534767 0.0155004
0.212496 -0.532646 0.015439
0.212661 -0.534943 0.0155055
0.212324 -0.535988 0.0155358
0.211774 -0.536504 0.0155508
0.210199 -0.534416 0.0154903
0.209243 -0.533895 0.0154751
0.208648 -0.534291 0.0154866
0.208498 -0.535835 0.0155314
0.207318 -0.534733 0.0154995
0.206106 -0.533542 0.0154649
0.204826 -0.532162 0.0154249
0.204506 -0.53328 0.0154573
0.203717 -0.533174 0.0154543
0.202963 -0.533163 0.0154539
0.201879 -0.53228 0.0154284
0.200872 -0.531594 0.0154085
0.199821 -0.530786 0.0153851
0.198723 -0.529848 0.0153579
0.197943 -0.529754 0.0153551
0.196084 -0.526759 0.0152683
0.194661 -0.524917 0.0152149
0.193347 -0.523357 0.0151697
0.192145 -0.522091 0.015133
0.191318 -0.521835 0.0151256
0.190731 -0.522236 0.0151372
0.189902 -0.521975 0.0151297
0.188634 -0.520501 0.0150869
0.187306 -0.518848 0.015039
0.186952 -0.51989 0.0150692
0.18616 -0.519718 0.0150642
0.185763 -0.520653 0.0150913
0.184774 -0.519929 0.0150704
0.184134 -0.520186 0.0150778
0.18328 -0.519836 0.0150677
0.182847 -0.520685 0.0150923
0.182549 -0.521924 0.0151282
0.182036 -0.522557 0.0151465
0.181144 -0.5221 0.0151333
0.180336 -0.521886 0.0151271
0.179428 -0.521378 0.0151124
0.178821 -0.521745 0.015123
0.178312 -0.522402 0.015142
0.177624 -0.522539 0.015146
0.176856 -0.522439 0.0151431
0.175405 -0.520313 0.0150815
0.174722 -0.520456 0.0150856
0.174064 -0.520674 0.0150919
0.173418 -0.520932 0.0150994
0.172397 -0.52006 0.0150742
0.170954 -0.517902 0.0150116
0.17045 -0.518584 0.0150314
0.169943 -0.519261 0.015051
0.169715 -0.5208 0.0150956
0.168656 -0.519793 0.0150664
0.167736 -0.519205 0.0150494
0.167382 -0.520373 0.0150832
0.166794 -0.520821 0.0150962
0.166185 -0.521207 0.0151074
0.165228 -0.520497 0.0150868
0.164485 -0.52046 0.0150857
0.163555 -0.519829 0.0150675
0.163008 -0.520416 0.0150845
0.162478 -0.521061 0.0151032
0.161575 -0.520511 0.0150872
0.160376 -0.518999 0.0150434
0.159574 -0.518763 0.0150366
0.159156 -0.519776 0.0150659
0.158311 -0.519402 0.0150551
0.157453 -0.518979 0.0150428
0.156996 -0.519881 0.015069
0.156643 -0.521138 0.0151054
0.155766 -0.520652 0.0150913
0.15447 -0.518757 0.0150364
0.153594 -0.518264 0.0150221
0.152984 -0.518664 0.0150337
0.152306 -0.518836 0.0150387
0.15168 -0.51919 0.0150489
0.15119 -0.520012 0.0150727
0.150457 -0.520003 0.0150725
0.149479 -0.519146 0.0150477
0.149129 -0.520471 0.0150861
0.148224 -0.51986 0.0150684
0.147687 -0.520545 0.0150882
0.146305 -0.518241 0.0150214
0.145576 -0.518238 0.0150213
0.144693 -0.517684 0.0150053
0.144429 -0.51935 0.0150536
0.143847 -0.519886 0.0150691
0.143161 -0.520045 0.0150737
0.142238 -0.519343 0.0150534
0.141457 -0.519155 0.0150479
0.140811 -0.519465 0.0150569
0.140076 -0.519447 0.0150564
0.139234 -0.519028 0.0150442
0.138394 -0.518614 0.0150322
0.137541 -0.518145 0.0150186
0.137007 -0.518881 0.01504
0.135918 -0.517511 0.0150003
0.134992 -0.516748 0.0149782
0.134425 -0.51736 0.0149959
0.134228 -0.519414 0.0150554
0.133517 -0.519488 0.0150576
0.13252 -0.518441 0.0150272
0.13178 -0.518396 0.0150259
0.130618 -0.516682 0.0149762
0 -0 0
0 -0 0
0.101341 -0.407668 0.0118164
0.0987598 -0.399545 0.011581
0.0960175 -0.390672 0.0113238
0.0939312 -0.384381 0.0111414
0.0926777 -0.381445 0.0110563
0.0917488 -0.379818 0.0110092
0.0912523 -0.379973 0.0110137
0.0902107 -0.377847 0.010952
0.0896086 -0.377547 0.0109434
0.0890342 -0.377361 0.010938
0.0883988 -0.376913 0.010925
0.087465 -0.375179 0.0108747
0.0868089 -0.374623 0.0108586
0.0865236 -0.37567 0.0108889
0.0857259 -0.374491 0.0108548
0.0849974 -0.373602 0.010829
0.084378 -0.373185 0.0108169
0.0840469 -0.374045 0.0108419
0.0832946 -0.37303 0.0108124
0.0827399 -0.372892 0.0108084
0.0822076 -0.372855 0.0108073
0.0819586 -0.37411 0.0108437
0.0817757 -0.375685 0.0108894
0.0816099 -0.377359 0.0109379
0.0810768 -0.377346 0.0109375
0.0808663 -0.378844 0.0109809
0.0805168 -0.379706 0.0110059
0 -0 0
0 -0 0
0 -0 0
0.106691 -0.516839 0.0149808
0.105992 -0.516975 0.0149847
0.105157 -0.516438 0.0149692
0.104394 -0.516258 0.0149639
0.103607 -0.515949 0.014955
0.102552 -0.514297 0.0149071
0.101716 -0.513725 0.0148905
0.10124 -0.514973 0.0149267
0.100457 -0.514668 0.0149179
0.0997134 -0.514564 0.0149149
0.0989493 -0.514351 0.0149087
0.0983044 -0.514759 0.0149205
0.097503 -0.514347 0.0149086
0.0967451 -0.51416 0.0149031
0.0957839 -0.512882 0.0148661
0.0951037 -0.513101 0.0148724
0.0943098 -0.512705 0.014861
0.0935064 -0.512251 0.0148478
0.0927437 -0.512014 0.0148409
0.0919714 -0.51172 0.0148324
0.0915 -0.513109 0.0148727
0.0904575 -0.511292 0.01482
0.0902527 -0.514219 0.0149048
0.08982 -0.515884 0.0149531
0.0892249 -0.516636 0.0149749
0.0880586 -0.514065 0.0149004
0.0873674 -0.514249 0.0149057
0.0868885 -0.515695 0.0149476
0.0856363 -0.512538 0.0148561
0.0845305 -0.510211 0.0147887
0.0835338 -0.508508 0.0147393
0.0835956 -0.513275 0.0148775
0.0828197 -0.512936 0.0148677
0.0819032 -0.511713 0.0148322
0.0812719 -0.512267 0.0148483
0.0808 -0.513844 0.014894
0.080152 -0.514319 0.0149077
0.079164 -0.512601 0.014858
0.0781824 -0.510894 0.0148085
0.0776004 -0.511791 0.0148345
0.0767012 -0.510592 0.0147997
0.0763907 -0.513327 0.014879
0.0761645 -0.516686 0.0149764
0.0751708 -0.514853 0.0149232
0.0739592 -0.511477 0.0148254
0.0732369 -0.511452 0.0148246
0.0724429 -0.510921 0.0148093
0.0714029 -0.508627 0.0147428
0.071112 -0.511677 0.0148312
0.070542 -0.51276 0.0148626
0.0697718 -0.512395 0.014852
0.0689858 -0.511906 0.0148378
0.0681328 -0.510904 0.0148088
0.0669166 -0.507128 0.0146993
0.0664205 -0.508786 0.0147474
0.0655873 -0.507871 0.0147208
0.0646369 -0.506017 0.0146671
0.0642056 -0.508232 0.0147313
0.0636005 -0.509105 0.0147566
0.0627907 -0.508341 0.0147345
0.0620003 -0.507718 0.0147164
0.0615176 -0.50963 0.0147718
0.0608854 -0.510334 0.0147922
0.0600844 -0.509622 0.0147716
0.0591103 -0.507408 0.0147074
0.0586182 -0.509328 0.0147631
0.0574807 -0.505617 0.0146555
0.0565132 -0.503329 0.0145892
0.0564617 -0.509243 0.0147606
0.0556952 -0.508778 0.0147471
0.0550755 -0.509659 0.0147727
0.0539662 -0.505974 0.0146659
0.053713 -0.510323 0.0147919
0.052864 -0.509053 0.0147551
0.0522039 -0.509593 0.0147708
0.0513397 -0.508127 0.0147283
0.0502071 -0.503925 0.0146065
0.049177 -0.500647 0.0145115
0.0490087 -0.506175 0.0146717
0.0489783 -0.513312 0.0148785
0.048538 -0.516301 0.0149652
0.0473095 -0.51087 0.0148078
0.0458527 -0.502768 0.0145729
0.045246 -0.503879 0.0146051
0.0441801 -0.49983 0.0144878
0.0437959 -0.503488 0.0145938
0.042428 -0.495772 0.0143701
0.0416229 -0.494484 0.0143328
0.0414115 -0.500325 0.0145021
0.0404566 -0.49723 0.0144124
0.0399579 -0.499731 0.0144849
0.039543 -0.503389 0.0145909
0.0392156 -0.508314 0.0147337
0.0389451 -0.514173 0.0149035
0.038271 -0.514825 0.0149224
0.0362533 -0.49708 0.0144081
0.0356589 -0.498535 0.0144502
0.0345515 -0.492732 0.014282
0.0344932 -0.501961 0.0145495
0.0342578 -0.508942 0.0147519
0.0330415 -0.501338 0.0145315
0 -0 0
0 -0 0
0 -0 0
0 -0 0
0.0300569 -0.510474 0.0147963
0.0292757 -0.509362 0.0147641
0.0289113 -0.515629 0.0149457
0.0271973 -0.497529 0.0144211
0.0263181 -0.494148 0.0143231
0 -0 0
0 -0 0
0 -0 0
0 -0 0
0 -0 0
0 -0 0
0 -0 0
0 -0 0
0 -0 0
0 -0 0
0 -0 0
0 -0 0
0 -0 0
0 -0 0
0 -0 0
0 -0 0
0 -0 0
0 -0 0
0 -0 0
0 -0 0
0 -0 0
0 -0 0
0 -0 0
0 -0 0
0 -0 0
0 -0 0
0 -0 0
0 -0 0
0 -0 0
0 -0 0
0 -0 0
0 -0 0
0 -0 0
0 -0 0
0 -0 0
0 -0 0
0 -0 0
-0 -0 0
-0 -0 0
0 -0 0
0.350368 -0.489942 0.013512
0.355863 -0.498607 0.013751
0.359103 -0.504138 0.0139035
0.361166 -0.508037 0.0140111
0.358929 -0.50589 0.0139519
0.357639 -0.505072 0.0139293
0.357516 -0.505902 0.0139522
0.359307 -0.509449 0.01405
0.35805 -0.508681 0.0140288
0.357451 -0.508846 0.0140334
0.358009 -0.510662 0.0140835
0.360227 -0.514857 0.0141991
0.363117 -0.520033 0.0143419
0.367781 -0.527774 0.0145554
0.365754 -0.525926 0.0145044
0.363478 -0.523711 0.0144433
0 -0 0
0.365884 -0.529322 0.0145981
0.361614 -0.52421 0.0144571
0 -0 0
0 -0 0
0.307285 -0.448191 0.0123606
0.306721 -0.448288 0.0123633
0.308926 -0.452439 0.0124777
0.308354 -0.452533 0.0124803
0.307843 -0.452717 0.0124854
0.318702 -0.469657 0.0129526
0.328243 -0.484721 0.013368
0 -0 0
0.350613 -0.519912 0.0143386
0 -0 0
0.369671 -0.550467 0.0151812
0.366149 -0.546366 0.0150681
0.359947 -0.53824 0.014844
0.365539 -0.547753 0.0151064
0.370426 -0.556246 0.0153406
0.371732 -0.559388 0.0154273
0.35921 -0.54169 0.0149392
0.366573 -0.553968 0.0152778
0.360158 -0.545432 0.0150424
0.356721 -0.541379 0.0149306
0.364438 -0.554273 0.0152862
0.365538 -0.557136 0.0153652
0.363894 -0.555821 0.0153289
0.362139 -0.55433 0.0152878
0.35913 -0.550909 0.0151934
0.360918 -0.554849 0.0153021
0 -0 0
0.359366 -0.55486 0.0153024
0 -0 0
0 -0 0
0 -0 0
0 -0 0
0 -0 0
0 -0 0
0.346534 -0.543298 0.0149835
0.34827 -0.547226 0.0150918
0.356444 -0.561309 0.0154803
0.341712 -0.539303 0.0148733
0.347536 -0.549713 0.0151604
0.344921 -0.546793 0.0150799
0.346366 -0.550309 0.0151769
0.345515 -0.550186 0.0151735
0.344229 -0.549367 0.0151509
0.339134 -0.542453 0.0149602
0.342388 -0.548891 0.0151378
0.342037 -0.549566 0.0151564
0.340746 -0.548731 0.0151333
0 -0 0
0.342463 -0.554003 0.0152788
0.341775 -0.55415 0.0152828
0.339296 -0.551387 0.0152066
0.337545 -0.549796 0.0151627
0.335252 -0.547314 0.0150943
0.331181 -0.541913 0.0149453
0.329976 -0.541185 0.0149252
0 -0 0
0.33567 -0.553073 0.0152531
0.334382 -0.552229 0.0152298
0.335691 -0.55568 0.015325
0.334991 -0.555815 0.0153287
0.332728 -0.553349 0.0152607
0.329215 -0.54879 0.015135
0.325503 -0.543876 0.0149995
0 -0 0
0.322912 -0.542092 0.0149503
0.32355 -0.544448 0.0150152
0.330182 -0.556924 0.0153593
0.333379 -0.563654 0.0155449
0.325358 -0.551402 0.015207
0.318133 -0.540444 0.0149048
0 -0 0
0.31808 -0.542947 0.0149738
0 -0 0
0 -0 0
0.264486 -0.454736 0.0125411
0.26164 -0.450933 0.0124362
0.256954 -0.443932 0.0122431
0.255458 -0.442422 0.0122015
0.254652 -0.442102 0.0121926
0.256699 -0.446746 0.0123207
0 -0 0
0 -0 0
0 -0 0
0.310775 -0.5462 0.0150635
0.307805 -0.542319 0.0149565
0.304354 -0.537569 0.0148255
0 -0 0
0.278964 -0.495182 0.0136565
0.262912 -0.467856 0.0129029
0.260857 -0.465361 0.0128341
0 -0 0
0 -0 0
0 -0 0
0.248741 -0.448242 0.012362
0.24694 -0.446127 0.0123037
0.24581 -0.445215 0.0122785
0.246002 -0.4467 0.0123195
0.245769 -0.447418 0.0123393
0.246182 -0.44932 0.0123917
0.247687 -0.453229 0.0124995
0 -0 0
0 -0 0
0 -0 0
0.291513 -0.538967 0.0148641
0.291213 -0.539815 0.0148875
0.29005 -0.539063 0.0148667
0.289028 -0.538571 0.0148531
0.288885 -0.539717 0.0148848
0.290553 -0.544263 0.0150101
0.292332 -0.549041 0.0151419
0.291471 -0.548872 0.0151372
0.289889 -0.54734 0.015095
0.289771 -0.548574 0.015129
0.288469 -0.547566 0.0151012
0.285973 -0.544279 0.0150106
0.283173 -0.540396 0.0149035
0.283019 -0.541555 0.0149354
0.282335 -0.541702 0.0149395
0.282225 -0.542956 0.0149741
0.280961 -0.541989 0.0149474
0.280845 -0.543238 0.0149819
0.279826 -0.54274 0.0149681
0.279052 -0.54272 0.0149676
0.277116 -0.540432 0.0149045
0.276328 -0.540374 0.0149029
0.27566 -0.540555 0.0149079
0.275196 -0.541135 0.0149239
0.275059 -0.542365 0.0149578
0.274224 -0.542221 0.0149538
0.274275 -0.543832 0.0149983
0.273528 -0.543866 0.0149992
0.272878 -0.544094 0.0150055
0.271657 -0.543182 0.0149803
0.270426 -0.542243 0.0149544
0.269725 -0.542366 0.0149578
0.269222 -0.542889 0.0149722
0.268152 -0.542268 0.0149551
0.267016 -0.541509 0.0149342
0.264873 -0.5387 0.0148567
0.263508 -0.537459 0.0148225
0.263437 -0.538858 0.0148611
0.262555 -0.538603 0.0148541
0.260929 -0.536814 0.0148047
0.259453 -0.535326 0.0147637
0.259672 -0.537335 0.0148191
0.259391 -0.538318 0.0148462
0.258966 -0.53901 0.0148652
0.258066 -0.53871 0.014857
0.257738 -0.539611 0.0148818
0.256436 -0.538468 0.0148503
0.255917 -0.538969 0.0148641
0.254295 -0.537142 0.0148137
0.253719 -0.537521 0.0148242
0.252177 -0.535848 0.0147781
0.252056 -0.537197 0.0148153
0.250743 -0.536003 0.0147823
0.24961 -0.535189 0.0147599
0.248185 -0.533743 0.01472
0.246533 -0.531797 0.0146663
0.245035 -0.530171 0.0146215
0.244388 -0.530384 0.0146274
0.244176 -0.531545 0.0146594
0.244208 -0.533247 0.0147063
0.243431 -0.533185 0.0147046
0.242389 -0.532543 0.0146869
0.241446 -0.532113 0.014675
0.240536 -0.531755 0.0146652
0.2403 -0.532888 0.0146964
0.239978 -0.533838 0.0147226
0.238754 -0.532781 0.0146935
0.237324 -0.531255 0.0146514
0.236601 -0.531308 0.0146529
0.235776 -0.531132 0.014648
0.234785 -0.53058 0.0146328
0.233944 -0.530364 0.0146268
0.233486 -0.531016 0.0146448
0.232553 -0.53059 0.0146331
0.233153 -0.533669 0.014718
0.233049 -0.535152 0.0147589
0.231809 -0.534029 0.0147279
0.230224 -0.532099 0.0146747
0.229648 -0.532498 0.0146857
0.22969 -0.534338 0.0147364
0.228481 -0.533266 0.0147069
0.227969 -0.533823 0.0147222
0.226812 -0.532867 0.0146958
0.22637 -0.53359 0.0147158
0.2244 -0.530705 0.0146362
0.224114 -0.531796 0.0146663
0.223899 -0.533062 0.0147012
0.223485 -0.533863 0.0147233
0.221455 -0.530797 0.0146388
0.219718 -0.528412 0.014573
0.219309 -0.529216 0.0145952
0.218646 -0.529413 0.0146006
0.218342 -0.530482 0.0146301
0.218081 -0.531663 0.0146626
0.217666 -0.532474 0.014685
0.21732 -0.533463 0.0147123
0.215711 -0.531344 0.0146539
0.214895 -0.531174 0.0146492
0.214572 -0.532224 0.0146781
0.214121 -0.532963 0.0146985
0.21322 -0.532584 0.014688
0.211547 -0.530265 0.0146241
0.210916 -0.530553 0.014632
0.210689 -0.531861 0.0146681
0.210776 -0.533976 0.0147264
0.209266 -0.532044 0.0146731
0.208172 -0.53116 0.0146488
0.207678 -0.531806 0.0146666
0.207068 -0.532159 0.0146763
0.206123 -0.531652 0.0146623
0.205189 -0.531167 0.0146489
0.204356 -0.530943 0.0146428
0.203531 -0.530737 0.0146371
0.202696 -0.530504 0.0146307
0.201862 -0.53027 0.0146242
0.201011 -0.52999 0.0146165
0.200022 -0.529346 0.0145987
0.198375 -0.526946 0.0145325
0.197232 -0.525874 0.014503
0.19653 -0.525972 0.0145057
0.195039 -0.523953 0.01445
0.193109 -0.520732 0.0143612
0.19128 -0.517763 0.0142793
0.189854 -0.515865 0.0142269
0.189574 -0.517079 0.0142604
0.189629 -0.519218 0.0143194
0.189182 -0.519995 0.0143408
0.187909 -0.5185 0.0142996
0.186893 -0.517702 0.0142776
0.185963 -0.51714 0.0142621
0.184975 -0.51641 0.014242
0.184192 -0.516249 0.0142375
0.183246 -0.51563 0.0142205
0.182626 -0.515925 0.0142286
0.182034 -0.516302 0.014239
0.181759 -0.517585 0.0142744
0.181408 -0.518661 0.0143041
0.181163 -0.520051 0.0143424
0.180245 -0.519511 0.0143275
0.179542 -0.519587 0.0143296
0.178725 -0.519337 0.0143227
0.177989 -0.519319 0.0143222
0.177341 -0.519559 0.0143288
0.176463 -0.519122 0.0143168
0.17588 -0.519554 0.0143287
0.174732 -0.518314 0.0142945
0.173722 -0.517477 0.0142714
0.173191 -0.518062 0.0142875
0.17255 -0.518325 0.0142948
0.171866 -0.518459 0.0142985
0.170156 -0.515484 0.0142165
0.169211 -0.514815 0.014198
0.168757 -0.515637 0.0142207
0.168837 -0.518106 0.0142887
0.168154 -0.518246 0.0142926
0.167174 -0.517467 0.0142711
0.166118 -0.516443 0.0142429
0.165656 -0.517265 0.0142656
0.165043 -0.517624 0.0142755
0.164556 -0.51838 0.0142963
0.163625 -0.51774 0.0142787
0.162708 -0.517139 0.0142621
0.162348 -0.51831 0.0142944
0.161796 -0.518875 0.01431
0.160587 -0.517329 0.0142673
0.159398 -0.515834 0.0142261
0.158412 -0.514984 0.0142027
0.157782 -0.515289 0.0142111
0.157231 -0.515859 0.0142268
0.156391 -0.515477 0.0142163
0.156084 -0.516861 0.0142544
0.155904 -0.518679 0.0143046
0.155283 -0.51904 0.0143145
0.154124 -0.517596 0.0142747
0.152845 -0.515735 0.0142234
0.151975 -0.515241 0.0142097
0.150933 -0.514159 0.0141799
0.150351 -0.514641 0.0141932
0.14972 -0.514957 0.0142019
0.149042 -0.515115 0.0142063
0.14837 -0.515295 0.0142112
0.148182 -0.517165 0.0142628
0.14765 -0.51785 0.0142817
0.146842 -0.517564 0.0142738
0.145636 -0.515871 0.0142271
0.14511 -0.516578 0.0142466
0.144085 -0.51551 0.0142172
0.143615 -0.516422 0.0142423
0.143106 -0.517205 0.0142639
0.142612 -0.518051 0.0142872
0.141539 -0.516791 0.0142525
0.140615 -0.516067 0.0142325
0.139835 -0.515865 0.0142269
0.139173 -0.516096 0.0142333
0.138097 -0.514789 0.0141973
0.137519 -0.515334 0.0142123
0.136837 -0.515493 0.0142167
0.136129 -0.515556 0.0142184
0.134908 -0.513664 0.0141662
0.13378 -0.51211 0.0141234
0.132966 -0.511748 0.0141134
0.132742 -0.513662 0.0141662
0.132301 -0.514754 0.0141963
0.131528 -0.51456 0.014191
0.131008 -0.515359 0.014213
0.130044 -0.51441 0.0141868
0 -0 0
0 -0 0
0.100394 -0.40386 0.011138
0.0964413 -0.390165 0.0107603
0.0942904 -0.383644 0.0105805
0.0929104 -0.380203 0.0104856
0.0919836 -0.378588 0.010441
0.09136 -0.378209 0.0104305
0.0906644 -0.377525 0.0104117
0.0896131 -0.375344 0.0103515
0.0886394 -0.373463 0.0102997
0.0880258 -0.373087 0.0102893
0.0873292 -0.372352 0.010269
0.0863791 -0.370522 0.0102185
0.0858979 -0.370692 0.0102232
0.0855956 -0.371641 0.0102494
0.0848409 -0.370625 0.0102214
0.0841398 -0.369833 0.0101996
0.0835374 -0.369467 0.0101895
0.0832267 -0.370395 0.0102151
0.0822931 -0.368545 0.010164
0.081689 -0.368156 0.0101533
0.081196 -0.368267 0.0101564
0.0811052 -0.370214 0.0102101
0.080717 -0.370821 0.0102268
0.0808009 -0.373619 0.010304
0.0806301 -0.375267 0.0103494
0.0799151 -0.374388 0.0103252
0.0793909 -0.374397 0.0103254
0.0798143 -0.378904 0.0104497
0 -0 0
0 -0 0
0 -0 0
0 -0 0
0.104742 -0.514402 0.0141866
0.103839 -0.513512 0.0141621
0.103074 -0.513297 0.0141561
0.10217 -0.51238 0.0141308
0.101135 -0.510786 0.0140869
0.100619 -0.511815 0.0141152
0.099875 -0.511688 0.0141118
0.0989851 -0.510806 0.0140874
0.0981248 -0.510066 0.014067
0.0974495 -0.510282 0.014073
0.096692 -0.510069 0.0140671
0.0960594 -0.510516 0.0140794
0.0951737 -0.509615 0.0140546
0.0943999 -0.509304 0.014046
0.0932508 -0.506948 0.013981
0.0928001 -0.508381 0.0140206
0.0921986 -0.509005 0.0140378
0.0914133 -0.508615 0.014027
0.0903659 -0.506749 0.0139755
0.0899379 -0.508355 0.0140198
0.0892571 -0.508546 0.0140251
0.0885201 -0.508418 0.0140216
0.0879058 -0.508997 0.0140376
0.0868551 -0.507039 0.0139835
0.0862299 -0.507553 0.0139977
0.0860347 -0.510628 0.0140825
0.0849421 -0.508383 0.0140206
0.0840901 -0.507552 0.0139977
0.0834502 -0.507999 0.01401
0.0824022 -0.505947 0.0139534
0.0823875 -0.510259 0.0140724
0.0813275 -0.508117 0.0140133
0.0810161 -0.510654 0.0140832
0.0810181 -0.515231 0.0142095
0.0799684 -0.513141 0.0141518
0.078859 -0.510626 0.0140825
0.0780317 -0.509909 0.0140627
0.0770589 -0.508219 0.0140161
0.0763947 -0.508552 0.0140253
0.075975 -0.510534 0.0140799
0.0757743 -0.514039 0.0141766
0.074112 -0.507601 0.013999
0.0734806 -0.508168 0.0140147
0.0731649 -0.51095 0.0140914
0.0720437 -0.508106 0.014013
0.0710488 -0.506105 0.0139578
0.070489 -0.507194 0.0139878
0.0699306 -0.508316 0.0140188
0.0691462 -0.507801 0.0140046
0.0688532 -0.510922 0.0140906
0.0675305 -0.506387 0.0139656
0.066824 -0.506426 0.0139666
0.0658337 -0.504292 0.0139078
0.0650076 -0.503381 0.0138827
0.0642922 -0.503319 0.013881
0.0634752 -0.50245 0.013857
0.0636015 -0.509113 0.0140408
0.0628197 -0.508576 0.0140259
0.0618439 -0.506438 0.013967
0.060742 -0.503205 0.0138778
0.0599379 -0.502392 0.0138554
0.059024 -0.500628 0.0138067
0.0585145 -0.502293 0.0138527
0.0577741 -0.501993 0.0138444
0.0569867 -0.501271 0.0138245
0.0561174 -0.499803 0.013784
0.0556894 -0.502277 0.0138522
0.0551665 -0.503948 0.0138983
0.0544647 -0.504007 0.0138999
0.0540945 -0.507177 0.0139873
0.0533244 -0.506631 0.0139723
0.0525166 -0.505708 0.0139468
0.0515329 -0.503043 0.0138733
0.0508059 -0.502843 0.0138678
0.0496964 -0.4988 0.0137563
0.0490503 -0.499358 0.0137717
0.0486692 -0.50267 0.013863
0.0486208 -0.509565 0.0140532
0.0482212 -0.512931 0.014146
0.0472552 -0.510283 0.014073
0.0461802 -0.506359 0.0139648
0.0447195 -0.498016 0.0137347
0.0442058 -0.500122 0.0137928
0.0428657 -0.492795 0.0135907
0.0426937 -0.498877 0.0137584
0.0420282 -0.499299 0.0137701
0.0417256 -0.50412 0.013903
0.0406099 -0.499114 0.013765
0.0399515 -0.499651 0.0137798
0.0392396 -0.499526 0.0137763
0.0387835 -0.502713 0.0138642
0.0379498 -0.501032 0.0138179
0.0369014 -0.496401 0.0136902
0.036128 -0.495361 0.0136615
0.0353744 -0.494556 0.0136393
0.0348893 -0.497549 0.0137218
0.0348356 -0.506943 0.0139809
0 -0 0
0.0325463 -0.493824 0.0136191
0.0325719 -0.504981 0.0139268
0.0315165 -0.4995 0.0137756
0 -0 0
0.0293875 -0.487471 0.0134439
0.0284874 -0.483818 0.0133431
0.0284672 -0.495295 0.0136597
0.028254 -0.503906 0.0138971
0.0271114 -0.495958 0.0136779
0.0262093 -0.492106 0.0135717
0.0255463 -0.492656 0.0135869
0 -0 0
0 -0 0
0.0242389 -0.508809 0.0140324
0.0230643 -0.498866 0.0137581
0 -0 0
0.0202905 -0.467276 0.0128869
0.0209095 -0.497637 0.0137242
0 -0 0
0 -0 0
0.0181138 -0.479177 0.0132151
0 -0 0
0 -0 0
0 -0 0
0 -0 0
0 -0 0
0 -0 0
0 -0 0
0 -0 0
0 -0 0
0 -0 0
0 -0 0
0 -0 0
0 -0 0
0 -0 0
0 -0 0
0 -0 0
0 -0 0
0 -0 0
0 -0 0
0 -0 0
0 -0 0
0 -0 0
0 -0 0
0 -0 0
0 -0 0
0 -0 0
-0 -0 0
-0 -0 0
0 -0 0
0.349912 -0.489304 0.0128062
0.351183 -0.492049 0.012878
0.357494 -0.501879 0.0131353
0.359209 -0.505284 0.0132244
0.355728 -0.501378 0.0131222
0.354366 -0.50045 0.0130979
0.356381 -0.504296 0.0131986
0.354837 -0.503112 0.0131676
0.356031 -0.505812 0.0132382
0.356159 -0.507007 0.0132695
0.356325 -0.50826 0.0133023
0.360232 -0.514865 0.0134752
0.362367 -0.518958 0.0135823
0.36591 -0.525088 0.0137427
0.365222 -0.52516 0.0137446
0.359208 -0.517559 0.0135457
0.358088 -0.516991 0.0135308
0.368419 -0.532989 0.0139495
0.367954 -0.533401 0.0139603
0 -0 0
0 -0 0
0.310851 -0.453392 0.0118663
0.308089 -0.450287 0.011785
0.31081 -0.455198 0.0119136
0.309228 -0.453815 0.0118774
0.309835 -0.455645 0.0119253
0 -0 0
0.326329 -0.481895 0.0126123
0 -0 0
0 -0 0
0 -0 0
0.3513 -0.523111 0.013691
0.367962 -0.549071 0.0143704
0.364617 -0.545223 0.0142697
0.362719 -0.543526 0.0142253
0.361873 -0.543403 0.0142221
0.351674 -0.529205 0.0138505
0 -0 0
0.367097 -0.55476 0.0145193
0.359747 -0.544809 0.0142589
0.357867 -0.543118 0.0142146
0.360321 -0.548011 0.0143427
0.363277 -0.55369 0.0144913
0.36167 -0.552424 0.0144582
0.354937 -0.543307 0.0142196
0.360144 -0.552464 0.0144592
0 -0 0
0.354825 -0.546662 0.0143074
0.35451 -0.547362 0.0143257
0.356633 -0.551836 0.0144428
0 -0 0
0.34898 -0.542353 0.0141946
0.346078 -0.539021 0.0141074
0.355108 -0.554299 0.0145072
0 -0 0
0.347191 -0.544328 0.0142463
0.354272 -0.556656 0.0145689
0.341749 -0.538168 0.0140851
0.343175 -0.541612 0.0141752
0.341467 -0.540114 0.014136
0.346556 -0.549385 0.0143786
0.343903 -0.546396 0.0143004
0.336913 -0.536488 0.0140411
0.334487 -0.53382 0.0139713
0.334901 -0.535682 0.01402
0.336456 -0.539382 0.0141168
0.337941 -0.542985 0.0142111
0.341122 -0.549337 0.0143774
0.341139 -0.550611 0.0144107
0.335755 -0.543151 0.0142155
0.336953 -0.546331 0.0142987
0.336602 -0.547009 0.0143165
0.336814 -0.548606 0.0143582
0.338357 -0.552383 0.0144571
0.331234 -0.541998 0.0141853
0.32838 -0.538567 0.0140955
0.331655 -0.545194 0.014269
0.332312 -0.54754 0.0143304
0.333494 -0.550763 0.0144147
0.334844 -0.554277 0.0145067
0 -0 0
0.328939 -0.547049 0.0143175
0.328213 -0.54712 0.0143194
0.326635 -0.545768 0.014284
0.321966 -0.539232 0.0141129
0.320568 -0.538158 0.0140848
0.321186 -0.54047 0.0141453
0 -0 0
0.322055 -0.544508 0.014251
0.319563 -0.541581 0.0141744
0 -0 0
0 -0 0
0 -0 0
0 -0 0
0 -0 0
0 -0 0
0 -0 0
0 -0 0
0.258748 -0.448119 0.0117283
0.256485 -0.445283 0.0116541
0.25768 -0.448452 0.011737
