ply
format ascii 1.0
element vertex 1539
property float x
property float y
property float z
end_header
-0.142167 0.00518041 -0.274993
-0.141742 0.00517901 -0.274919
-0.142084 0.00520568 -0.276335
-0.141714 0.00520635 -0.27637
-0.142079 0.00523411 -0.277843
-0.141087 0.00521188 -0.276664
-0.141237 0.00523183 -0.277723
-0.140731 0.00522753 -0.277494
-0.140513 0.00523396 -0.277835
-0.140163 0.00523545 -0.277915
-0.139448 0.00522329 -0.277269
-0.13842 0.00519934 -0.275998
-0.136444 0.0051395 -0.272821
-0.135676 0.005125 -0.272051
-0.135492 0.00513248 -0.272449
-0.135787 0.00515824 -0.273816
-0.135407 0.0051584 -0.273825
-0.134219 0.00512772 -0.272196
-0.133332 0.00510839 -0.27117
-0.132739 0.00510025 -0.270738
-0.132813 0.00511778 -0.271668
-0.133099 0.0051436 -0.273039
-0.13341 0.00517052 -0.274468
-0.133914 0.00520508 -0.276303
-0.133049 0.0051865 -0.275316
-0.133051 0.00520169 -0.276123
-0.132334 0.0051888 -0.275438
-0.132598 0.00521442 -0.276798
-0.132255 0.00521623 -0.276894
-0.132177 0.00522854 -0.277548
-0.13172 0.00522585 -0.277405
-0.131711 0.00524104 -0.278211
-0.131644 0.00525394 -0.278896
-0.130825 0.00523684 -0.277989
-0.12955 0.00520133 -0.276104
-0.128749 0.00518473 -0.275222
-0.12953 0.00523189 -0.277726
-0.130072 0.00526965 -0.27973
-0.129289 0.0052538 -0.278889
-0.128623 0.00524264 -0.278296
-0.127435 0.00521004 -0.276566
-0.127709 0.00523723 -0.278009
-0.127421 0.00524147 -0.278234
-0.127987 0.00528094 -0.280329
-0.127961 0.00529616 -0.281138
-0.12791 0.00531045 -0.281896
-0.127202 0.00529747 -0.281207
-0.126932 0.00530267 -0.281483
-0.126821 0.0053146 -0.282116
-0.126713 0.00532674 -0.282761
-0.126385 0.00532966 -0.282916
-0.126933 0.00536968 -0.28504
-0.126709 0.00537716 -0.285437
-0.125913 0.00536033 -0.284544
-0.125472 0.00535858 -0.284451
-0.125312 0.00536886 -0.284997
-0.124373 0.00534572 -0.283768
-0.124185 0.00535481 -0.284251
-0.124269 0.0053757 -0.285359
-0.124573 0.00540629 -0.286984
-0.124367 0.0054149 -0.28744
-0.123901 0.00541219 -0.287296
-0.123326 0.00540468 -0.286898
-0.122856 0.00540176 -0.286743
-0.122192 0.00539024 -0.286132
-0.121732 0.00538768 -0.285995
-0.121153 0.00537981 -0.285578
-0.12155 0.00541537 -0.287465
-0.120961 0.00540711 -0.287027
-0.121414 0.0054455 -0.289065
-0.121431 0.00546453 -0.290075
-0.121304 0.00547721 -0.290748
-0.120343 0.00545217 -0.289419
-0.119716 0.00544218 -0.288888
-0.119057 0.00543061 -0.288274
-0.118432 0.00542057 -0.287741
-0.118201 0.00542852 -0.288163
-0.118514 0.0054616 -0.289919
-0.118496 0.00547963 -0.290876
-0.118585 0.00550273 -0.292103
-0.118365 0.00551156 -0.292572
-0.118317 0.00552856 -0.293474
-0.117429 0.00550626 -0.29229
-0.117313 0.00552013 -0.293027
-0.117219 0.00553513 -0.293823
-0.117061 0.00554718 -0.294462
-0.116439 0.00553731 -0.293938
-0.115779 0.00552549 -0.293311
-0.115159 0.00551555 -0.292783
-0.114381 0.00549796 -0.29185
-0.113055 0.00545374 -0.289502
-0 0 -0
-0 0 -0
-0.0945859 0.0046126 -0.244852
-0.0928924 0.00454656 -0.241346
-0.0921976 0.00452908 -0.240419
-0.0916334 0.00451793 -0.239826
-0.0913785 0.00452199 -0.240042
-0.0911963 0.00452969 -0.240451
-0.0911424 0.00454385 -0.241202
-0.0907067 0.00453901 -0.240945
-0.0902915 0.00453516 -0.240741
-0.0896001 0.00451736 -0.239796
-0.0887072 0.00448923 -0.238303
-0.087946 0.00446757 -0.237153
-0.0874417 0.00445885 -0.23669
-0.0871912 0.00446305 -0.236913
-0.0869329 0.00446688 -0.237117
-0.0864982 0.00446165 -0.236839
-0.0859947 0.00445281 -0.236369
-0.0855717 0.00444809 -0.236119
-0.0851971 0.00444585 -0.236
-0.0847837 0.00444157 -0.235773
-0.0842162 0.00442915 -0.235114
-0.0837434 0.00442163 -0.234715
-0.0833276 0.00441707 -0.234473
-0.0829978 0.00441706 -0.234472
-0.0826298 0.004415 -0.234363
-0.08228 0.0044139 -0.234304
-0.0819715 0.00441502 -0.234363
-0.0815667 0.00441094 -0.234147
-0.0811008 0.0044035 -0.233752
-0.0805859 0.00439334 -0.233213
-0.0801942 0.00438984 -0.233027
-0.0797473 0.00438328 -0.232679
-0.0794095 0.00438268 -0.232647
-0.0789735 0.00437663 -0.232326
-0.0785575 0.00437165 -0.232061
-0.0781622 0.00436778 -0.231856
-0.0778774 0.00437008 -0.231978
-0.0778339 0.004386 -0.232823
-0.0775222 0.00438687 -0.23287
-0.0771904 0.00438662 -0.232856
-0.0765939 0.00437125 -0.23204
-0.0762088 0.00436787 -0.231861
-0.0757678 0.00436124 -0.231509
-0.0753684 0.00435695 -0.231281
-0.0749975 0.00435429 -0.23114
-0.0746341 0.00435204 -0.23102
-0.0744052 0.00435764 -0.231318
-0.0740667 0.00435685 -0.231276
-0.0737544 0.0043576 -0.231316
-0.0733922 0.0043554 -0.231199
-0.0729299 0.0043472 -0.230764
-0.0724724 0.00433923 -0.230341
-0.0719564 0.00432766 -0.229726
-0.0715328 0.00432158 -0.229403
-0.071145 0.0043176 -0.229192
-0.0707421 0.00431267 -0.228931
-0.0704087 0.00431196 -0.228893
-0.0699516 0.00430363 -0.228451
-0.0695792 0.00430045 -0.228282
-0.0692371 0.00429913 -0.228212
-0.0689482 0.00430111 -0.228317
-0.068504 0.00429338 -0.227907
-0.0679993 0.00428177 -0.22729
-0.0676404 0.00427926 -0.227157
-0.0672767 0.00427643 -0.227007
-0.0670538 0.00428258 -0.227333
-0.0666881 0.0042796 -0.227175
-0.066269 0.00427317 -0.226834
-0.0659111 0.00427063 -0.226699
-0.0655216 0.00426601 -0.226454
-0.0653006 0.00427237 -0.226791
-0.064818 0.0042616 -0.226219
-0.0644322 0.00425711 -0.225981
-0.0639414 0.00424561 -0.225371
-0.0635902 0.0042433 -0.225248
-0.0631283 0.00423355 -0.224731
-0.0627303 0.00422801 -0.224437
-0.0623301 0.00422227 -0.224132
-0.0621047 0.00422837 -0.224455
-0.0618655 0.00423358 -0.224732
-0.0616565 0.00424093 -0.225122
-0.0613375 0.00424074 -0.225112
-0.060981 0.00423795 -0.224964
-0.0604822 0.00422519 -0.224287
-0.0600561 0.0042174 -0.223874
-0.0597583 0.00421859 -0.223936
-0.0594926 0.00422207 -0.224121
-0.059176 0.00422195 -0.224115
-0.0587752 0.00421579 -0.223788
-0.0583695 0.00420921 -0.223438
-0.0579206 0.00419942 -0.222919
-0.0575483 0.00419512 -0.222691
-0.0572793 0.00419834 -0.222862
-0.0570155 0.00420198 -0.223055
-0.0566673 0.0041994 -0.222918
-0.0562549 0.00419202 -0.222526
-0.055927 0.00419087 -0.222465
-0.0556591 0.00419425 -0.222644
-0.0552598 0.0041877 -0.222297
-0.0549046 0.00418444 -0.222123
-0.0545766 0.00418322 -0.222059
-0.0542977 0.00418577 -0.222194
-0.0539238 0.00418099 -0.22194
-0.0534833 0.00417096 -0.221408
-0.0532101 0.00417393 -0.221566
-0.0529251 0.00417601 -0.221676
-0.0526076 0.00417554 -0.221651
-0.0522793 0.00417419 -0.22158
-0.051978 0.004175 -0.221623
-0.0516694 0.00417524 -0.221635
-0.0513956 0.00417829 -0.221797
-0.0510885 0.00417866 -0.221817
-0.0506833 0.00417097 -0.221409
-0.0501146 0.00414964 -0.220276
-0.0496363 0.00413559 -0.21953
-0.0493891 0.00414072 -0.219803
-0.0491313 0.00414503 -0.220032
-0.0487994 0.0041431 -0.219929
-0.0484521 0.00413983 -0.219756
-0.0481403 0.00413958 -0.219742
-0.0478123 0.00413792 -0.219654
-0.0474572 0.00413387 -0.219439
-0.0471414 0.00413321 -0.219404
-0.0468466 0.00413441 -0.219468
-0.0464681 0.00412818 -0.219137
-0.0461092 0.00412363 -0.218895
-0.0458083 0.00412423 -0.218927
-0.0456026 0.00413347 -0.219418
-0.0453558 0.00413908 -0.219716
-0.0449698 0.00413199 -0.219339
-0.0445423 0.00412095 -0.218754
-0.0441095 0.00410927 -0.218133
-0.0437804 0.00410715 -0.218021
-0.0435603 0.0041153 -0.218453
-0.043282 0.00411802 -0.218598
-0.0429942 0.00411988 -0.218697
-0.0425572 0.00410737 -0.218033
-0.0422121 0.0041036 -0.217833
-0.0418828 0.00410134 -0.217712
-0.0415859 0.00410222 -0.217759
-0.0412987 0.0041041 -0.217859
-0.0409502 0.00409985 -0.217633
-0.0405954 0.00409492 -0.217372
-0.0403212 0.00409809 -0.21754
-0.0399789 0.00409434 -0.217341
-0.0396389 0.00409077 -0.217151
-0.0391984 0.00407669 -0.216404
-0.038954 0.00408295 -0.216736
-0.0387743 0.00409614 -0.217436
-0.0386152 0.00411173 -0.218264
-0.0383185 0.00411281 -0.218322
-0.0380394 0.00411581 -0.21848
-0.037702 0.00411249 -0.218304
-0.037302 0.00410224 -0.21776
-0.036881 0.00408949 -0.217083
-0.0365626 0.00408799 -0.217004
-0.0363419 0.0040975 -0.217508
-0.036035 0.00409735 -0.217501
-0.0356822 0.00409194 -0.217213
-0.0353532 0.0040892 -0.217068
-0.0350566 0.00409018 -0.21712
-0.0348797 0.00410526 -0.217921
-0.0346112 0.00410975 -0.218159
-0.0343144 0.00411091 -0.218221
-0.0338864 0.00409625 -0.217442
-0.0335759 0.00409564 -0.21741
-0.0332608 0.00409446 -0.217347
-0.0329051 0.00408822 -0.217016
-0.0325809 0.00408581 -0.216888
-0.0323026 0.00408916 -0.217066
-0.0320785 0.0040995 -0.217615
-0.0317879 0.00410146 -0.217719
-0.0314634 0.00409904 -0.21759
-0.031161 0.00409948 -0.217614
-0.0308346 0.00409674 -0.217468
-0.0304661 0.0040883 -0.21702
-0.0301395 0.00408537 -0.216865
-0.0297671 0.0040761 -0.216373
-0.029586 0.00409311 -0.217276
-0.0292463 0.00408832 -0.217021
-0.0290905 0.00410938 -0.218139
-0.0286879 0.00409567 -0.217412
-0.0285265 0.00411647 -0.218515
-0.0280659 0.00409407 -0.217326
-0.0276969 0.00408468 -0.216828
-0.0272164 0.00405847 -0.215437
-0.0269892 0.00406986 -0.216041
-0.026662 0.00406626 -0.21585
-0.0264125 0.00407456 -0.216291
-0.0262094 0.0040903 -0.217126
-0.0259376 0.00409555 -0.217405
-0.0255408 0.00408096 -0.216631
-0.0251695 0.00407016 -0.216057
-0.0249133 0.00407791 -0.216469
-0.0246906 0.00409143 -0.217186
-0.0243242 0.00408114 -0.21664
-0.024058 0.00408764 -0.216985
-0.0237446 0.00408619 -0.216908
-0.0235279 0.00410154 -0.217723
-0.0232414 0.00410499 -0.217906
-0.023014 0.00411908 -0.218654
-0.0226865 0.00411542 -0.21846
-0.02241 0.00412102 -0.218757
-0.0220799 0.00411678 -0.218532
-0.0218369 0.0041289 -0.219175
-0.0215875 0.00414013 -0.219772
-0.0213002 0.00414433 -0.219994
-0.0209317 0.00413261 -0.219372
-0.0204911 0.00410609 -0.217964
-0.0201711 0.00410331 -0.217817
-0.0198856 0.00410756 -0.218043
-0.0197254 0.00413822 -0.21967
-0.0195199 0.00416021 -0.220838
-0.0191695 0.00415153 -0.220377
-0.0186882 0.00411377 -0.218372
-0.0182846 0.00409211 -0.217223
-0.0182111 0.00414485 -0.220022
-0.0180465 0.00417834 -0.2218
-0.0177427 0.00418019 -0.221898
-0.0172281 0.00413155 -0.219316
-0.0168945 0.00412537 -0.218988
-0.0165985 0.00412828 -0.219143
-0.016349 0.00414308 -0.219928
-0.0160828 0.00415415 -0.220516
-0.0159056 0.00418908 -0.22237
-0.0155852 0.00418697 -0.222258
-0.0151453 0.004152 -0.220402
-0.0147934 0.00414018 -0.219774
-0.0144742 0.00413722 -0.219617
-0.0143083 0.00417891 -0.22183
-0.0140049 0.00418138 -0.221961
-0.0136106 0.00415622 -0.220625
-0.0131923 0.0041224 -0.21883
-0.0129485 0.00414278 -0.219912
-0.0127233 0.00417024 -0.22137
-0.0124334 0.00417737 -0.221749
-0.0119764 0.00412725 -0.219088
-0.011709 0.00414158 -0.219848
-0.0114967 0.00417667 -0.221711
-0.0111338 0.0041575 -0.220694
-0.0108102 0.00415233 -0.220419
-0.0105994 0.00419145 -0.222496
-0.0102464 0.00417501 -0.221623
-0.00990842 0.00416386 -0.221031
-0.00973826 0.00422479 -0.224266
-0.00943058 0.00422813 -0.224443
-0.00919296 0.00426421 -0.226358
-0.00887682 0.00426515 -0.226408
-0.00841469 0.00419339 -0.222599
-0.00792949 0.00410417 -0.217862
-0.0076445 0.00411556 -0.218467
-0.00744563 0.0041762 -0.221686
-0.00713835 0.00417869 -0.221818
-0.00689415 0.00422 -0.224011
-0.0066455 0.00426243 -0.226263
-0.0062223 0.00419153 -0.2225
-0.0060081 0.00426137 -0.226207
-0.00574856 0.00430505 -0.228526
-0.00537076 0.00426009 -0.22614
-0.00479296 0.00404087 -0.214503
-0.00463623 0.00417105 -0.221413
-0.00435928 0.00420402 -0.223163
-0.00410003 0.00426049 -0.226161
-0.00371494 0.0041847 -0.222137
-0.00344653 0.00423849 -0.224993
-0.00310723 0.00420718 -0.223331
-0.00283933 0.00427635 -0.227003
-0.00246278 0.00417869 -0.221819
-0.00216051 0.00419701 -0.222791
-0.00187038 0.00424913 -0.225558
-0.00153756 0.00420576 -0.223256
-0.00120644 0.00414595 -0.220081
-0.000907706 0.00419463 -0.222665
-0.000582421 0.00410725 -0.218026
-0.00028012 0.00416788 -0.221244
3.08523e-05 0.00417781 -0.221772
0 0 -0
-0 0 -0
-0.162807 0.00460902 -0.227663
-0.164707 0.00467199 -0.230774
-0.163907 0.00465848 -0.230106
-0.166492 0.00474131 -0.234198
-0.167216 0.00477136 -0.235682
-0.164545 0.00470444 -0.232376
-0.161896 0.00463793 -0.229091
-0 0 -0
-0.161594 0.00464774 -0.229576
-0 0 -0
-0.164948 0.00476325 -0.235281
-0.162307 0.00469639 -0.231979
-0.165199 0.0047897 -0.236588
-0.162431 0.00471892 -0.233091
-0.160374 0.00466858 -0.230605
-0.161522 0.00471153 -0.232727
-0.163168 0.00476921 -0.235576
-0.162375 0.00475566 -0.234906
-0.160645 0.00471459 -0.232878
-0.157692 0.00463736 -0.229063
-0 0 -0
-0.162412 0.00479574 -0.236886
-0.158574 0.00469202 -0.231763
-0.157309 0.00466419 -0.230388
-0.158167 0.00469929 -0.232122
-0.160632 0.00478239 -0.236227
-0.165418 0.00493508 -0.243769
-0.159041 0.00475468 -0.234858
-0.156884 0.00469994 -0.232154
-0.165654 0.00497302 -0.245643
-0.163536 0.00491969 -0.243008
-0.160718 0.00484502 -0.23932
-0.15799 0.00477278 -0.235752
-0.155485 0.00470697 -0.232501
-0.155613 0.00472078 -0.233183
-0.159492 0.00484865 -0.2395
-0.159835 0.00486934 -0.240522
-0.160295 0.00489373 -0.241726
-0.158667 0.00485431 -0.239779
-0.15594 0.00478101 -0.236159
-0.160272 0.00492433 -0.243238
-0.160141 0.00493082 -0.243558
-0.158205 0.00488162 -0.241128
-0.159005 0.00491684 -0.242868
-0.158324 0.00490631 -0.242348
-0.15826 0.00491492 -0.242773
-0.158183 0.00492313 -0.243179
-0.157869 0.00492399 -0.243221
-0.159892 0.00499792 -0.246873
-0.158514 0.00496561 -0.245277
-0.157904 0.00495727 -0.244865
-0.157714 0.00496214 -0.245106
-0.158212 0.0049887 -0.246417
-0.15593 0.00492753 -0.243396
-0.153919 0.00487467 -0.240785
-0.154093 0.00489094 -0.241588
-0.155345 0.00494156 -0.244089
-0.15527 0.0049501 -0.244511
-0.152657 0.00487759 -0.240929
-0.153682 0.00492126 -0.243086
-0.154672 0.00496398 -0.245197
-0.155978 0.00501708 -0.247819
-0.154835 0.00499147 -0.246554
-0.154172 0.00498124 -0.246049
-0.154764 0.00501159 -0.247548
-0.155333 0.00504134 -0.249018
-0.155445 0.00505637 -0.24976
-0.156397 0.00509885 -0.251859
-0.156288 0.00510686 -0.252254
-0.155038 0.00507754 -0.250805
-0.153516 0.00503914 -0.248909
-0.154108 0.00507014 -0.25044
-0.154993 0.00511093 -0.252455
-0.15591 0.00515295 -0.254531
-0.155757 0.00515974 -0.254866
-0.15633 0.00519066 -0.256393
-0.155544 0.00517646 -0.255692
-0.154789 0.00516327 -0.25504
-0.15358 0.00513483 -0.253636
-0.154113 0.00516465 -0.255109
-0.154359 0.00518495 -0.256111
-0.153777 0.00517747 -0.255742
-0.152926 0.00516088 -0.254922
-0.153026 0.00517639 -0.255689
-0.152952 0.00518604 -0.256165
-0.153423 0.0052143 -0.257561
-0.153758 0.00523805 -0.258734
-0.152915 0.00522167 -0.257925
-0.152051 0.00520449 -0.257077
-0.152285 0.00522491 -0.258085
-0.152794 0.00525489 -0.259566
-0.152167 0.00524587 -0.25912
-0.151297 0.00522838 -0.258256
-0.15064 0.00521818 -0.257753
-0.149655 0.00519657 -0.256685
-0.149061 0.00518845 -0.256284
-0.147605 0.0051502 -0.254395
-0.148027 0.00517747 -0.255742
-0.149527 0.00524268 -0.258963
-0.15075 0.00529845 -0.261717
-0.149483 0.00526674 -0.260151
-0.149334 0.00527441 -0.26053
-0.149043 0.00527706 -0.260661
-0.149783 0.00531632 -0.2626
-0.148173 0.00527217 -0.26042
-0.147275 0.00525318 -0.259482
-0.146849 0.00525101 -0.259374
-0.14772 0.00529528 -0.261561
-0.148493 0.00533628 -0.263586
-0.147451 0.0053121 -0.262392
-0.146998 0.00530905 -0.262241
-0.147101 0.00532611 -0.263084
-0.147614 0.00535815 -0.264666
-0.147359 0.00536241 -0.264877
-0.146709 0.00535227 -0.264376
-0.145542 0.00532316 -0.262938
-0.14571 0.0053429 -0.263913
-0.145875 0.00536257 -0.264885
-0.145369 0.00535766 -0.264642
-0.144967 0.00535653 -0.264587
-0.144333 0.00534684 -0.264108
-0.14451 0.00536719 -0.265113
-0.145131 0.00540417 -0.26694
-0.145713 0.00543993 -0.268706
-0.144561 0.00541091 -0.267273
-0.143623 0.00538981 -0.266231
-0.143136 0.00538556 -0.26602
-0.143823 0.00542559 -0.267998
-0.143874 0.00544178 -0.268797
-0.143639 0.00544718 -0.269064
-0.142331 0.00541183 -0.267318
-0.141673 0.00540104 -0.266785
-0.141035 0.00539101 -0.26629
-0.14131 0.00541589 -0.267518
-0.141632 0.00544271 -0.268843
-0.142282 0.00548231 -0.270799
-0.142683 0.00551249 -0.27229
-0.142491 0.00551986 -0.272654
-0.142032 0.00551695 -0.27251
-0.141175 0.00549848 -0.271598
-0.14075 0.00549678 -0.271514
-0.140517 0.00550259 -0.271801
-0.140057 0.00549952 -0.271649
-0.14075 0.00554186 -0.273741
-0.140566 0.00554977 -0.274132
-0.140803 0.00557439 -0.275348
-0.14 0.0055579 -0.274533
-0.139667 0.00555997 -0.274635
-0.139323 0.00556165 -0.274718
-0.139101 0.00556823 -0.275043
-0.138754 0.00556982 -0.275122
-0.138259 0.00556547 -0.274907
-0.137015 0.00553083 -0.273196
-0.135488 0.00548455 -0.27091
-0.134184 0.00544707 -0.269058
-0.133919 0.00545169 -0.269287
-0.134772 0.00550195 -0.271769
-0.134535 0.0055079 -0.272063
-0.13395 0.00549956 -0.271652
-0.132675 0.00546277 -0.269834
-0.132707 0.00547974 -0.270672
-0.13223 0.00547574 -0.270475
-0.13284 0.00551687 -0.272506
-0.132848 0.00553314 -0.27331
-0.132886 0.00555078 -0.274182
-0.13199 0.00552937 -0.273124
-0.131967 0.00554457 -0.273875
-0.131676 0.0055485 -0.274069
-0.131545 0.00555925 -0.2746
-0.13082 0.00554488 -0.27389
-0.13048 0.00554676 -0.273983
-0.129878 0.00553753 -0.273527
-0.130159 0.00556599 -0.274933
-0.130713 0.00560632 -0.276925
-0.129892 0.00558773 -0.276007
-0.128457 0.00554255 -0.273775
-0.127638 0.00552376 -0.272847
-0.128382 0.00557269 -0.275264
-0.128989 0.00561597 -0.277401
-0.128731 0.0056217 -0.277685
-0.128132 0.00561258 -0.277234
-0.127392 0.00559719 -0.276474
-0.127112 0.00560196 -0.276709
-0.127132 0.00562004 -0.277603
-0.12722 0.00564121 -0.278648
-0.127361 0.00566494 -0.27982
-0.126843 0.00565937 -0.279545
-0.126333 0.0056541 -0.279285
-0.125938 0.00565399 -0.279279
-0.125504 0.00565212 -0.279187
-0.125612 0.00567474 -0.280305
-0.125315 0.00567911 -0.28052
-0.125729 0.00571587 -0.282336
-0.125313 0.005715 -0.282293
-0.124684 0.00570434 -0.281767
-0.124127 0.00569697 -0.281402
-0.123667 0.00569401 -0.281256
-0.123262 0.00569355 -0.281234
-0.123137 0.00570607 -0.281852
-0.123252 0.0057298 -0.283024
-0.123385 0.00575458 -0.284248
-0.123055 0.00575779 -0.284407
-0.122684 0.00575918 -0.284475
-0.122621 0.00577502 -0.285258
-0.122643 0.00579498 -0.286244
-0.122297 0.00579769 -0.286377
-0.121494 0.00577861 -0.285435
-0.12069 0.00575936 -0.284485
-0.120952 0.00579108 -0.286051
-0.120659 0.00579631 -0.28631
-0.120536 0.00580976 -0.286974
-0.120482 0.00582665 -0.287808
-0.120466 0.00584552 -0.28874
-0.120011 0.0058431 -0.288621
-0.119146 0.00582066 -0.287512
-0.118135 0.00579091 -0.286043
-0.11734 0.00577158 -0.285088
-0.117523 0.00580037 -0.28651
-0.11785 0.00583652 -0.288296
-0.118059 0.00586705 -0.289804
-0.117518 0.00586039 -0.289475
-0.117483 0.00587897 -0.290392
-0.117097 0.00588009 -0.290448
-0.116654 0.00587833 -0.290361
-0.116452 0.00588874 -0.290875
-0.116429 0.0059083 -0.291841
-0.116267 0.00592094 -0.292466
-0.115605 0.00590814 -0.291833
-0.115217 0.00590927 -0.291889
-0.114655 0.00590143 -0.291502
-0.113715 0.00587404 -0.290149
-0.112463 0.00583026 -0.287987
-0.11016 0.00573152 -0.283109
-0.103316 0.00539492 -0.266483
-0.0958407 0.00502277 -0.2481
-0.0934552 0.00491563 -0.242808
-0.0923593 0.00487579 -0.24084
-0.0917896 0.00486354 -0.240235
-0.0914505 0.00486345 -0.240231
-0.0910681 0.00486106 -0.240113
-0.0909418 0.00487237 -0.240671
-0.090507 0.00486718 -0.240415
-0.0901335 0.00486525 -0.24032
-0.0893007 0.00483843 -0.238995
-0.0883545 0.00480524 -0.237355
-0.0876523 0.00478511 -0.236361
-0.0872542 0.00478149 -0.236182
-0.0870544 0.00478876 -0.236541
-0.0867498 0.00479029 -0.236617
-0.0862467 0.00478084 -0.23615
-0.0856632 0.00476683 -0.235458
-0.0853064 0.00476539 -0.235387
-0.0848761 0.00475981 -0.235111
-0.0845603 0.00476063 -0.235152
-0.084024 0.00474899 -0.234577
-0.0836382 0.0047458 -0.234419
-0.0830813 0.00473284 -0.233779
-0.0827314 0.00473162 -0.233719
-0.0822112 0.00472061 -0.233175
-0.0819543 0.00472469 -0.233377
-0.0816051 0.00472346 -0.233316
-0.081388 0.0047299 -0.233634
-0.0809467 0.00472331 -0.233308
-0.0804729 0.00471475 -0.232886
-0.0800679 0.00471018 -0.23266
-0.0796281 0.00470351 -0.232331
-0.0792804 0.00470225 -0.232268
-0.0787724 0.00469144 -0.231734
-0.0784865 0.00469381 -0.231852
-0.0781248 0.00469166 -0.231745
-0.0778803 0.00469655 -0.231987
-0.0776217 0.00470064 -0.232188
-0.077234 0.0046969 -0.232004
-0.0768255 0.00469186 -0.231755
-0.0762175 0.00467454 -0.2309
-0.0758726 0.00467328 -0.230837
-0.0756068 0.00467691 -0.231017
-0.0753397 0.00468049 -0.231193
-0.0749637 0.0046773 -0.231036
-0.0744525 0.0046656 -0.230458
-0.07418 0.00466884 -0.230618
-0.0738564 0.00466887 -0.230619
-0.0736144 0.00467408 -0.230877
-0.0732403 0.00467091 -0.23072
-0.0728972 0.0046697 -0.23066
-0.0724196 0.00465982 -0.230173
-0.0720154 0.0046546 -0.229915
-0.0715233 0.00464363 -0.229373
-0.071185 0.00464259 -0.229321
-0.0706991 0.00463187 -0.228792
-0.0703674 0.0046312 -0.228758
-0.0698346 0.00461722 -0.228068
-0.069353 0.00460653 -0.22754
-0.069032 0.00460644 -0.227536
-0.0688317 0.00461444 -0.227931
-0.0685123 0.0046145 -0.227934
-0.0679816 0.00460027 -0.227231
-0.0675328 0.00459147 -0.226796
-0.0671685 0.00458835 -0.226642
-0.0668424 0.00458783 -0.226616
-0.0665086 0.00458677 -0.226564
-0.0660096 0.00457425 -0.225946
-0.0656575 0.00457184 -0.225827
-0.065221 0.00456351 -0.225415
-0.0650669 0.00457494 -0.22598
-0.0646763 0.00456978 -0.225725
-0.0643039 0.00456586 -0.225531
-0.0638762 0.00455796 -0.225141
-0.0634266 0.0045484 -0.224669
-0.063004 0.0045407 -0.224289
-0.0625988 0.00453418 -0.223966
-0.0622132 0.00452902 -0.223711
-0.06199 0.00453569 -0.224041
-0.061736 0.00454017 -0.224262
-0.0615477 0.00454954 -0.224725
-0.0611784 0.00454557 -0.224529
-0.0607489 0.00453705 -0.224108
-0.0603424 0.00453018 -0.223769
-0.0598901 0.00451977 -0.223255
-0.059692 0.00452854 -0.223688
-0.0594483 0.00453393 -0.223954
-0.0590852 0.00453022 -0.223771
-0.0585424 0.00451262 -0.222901
-0.0581106 0.00450343 -0.222447
-0.0577449 0.00449929 -0.222243
-0.057371 0.00449446 -0.222005
-0.0570546 0.00449411 -0.221987
-0.0568341 0.00450136 -0.222345
-0.0565563 0.00450412 -0.222481
-0.0561809 0.00449909 -0.222233
-0.0558024 0.00449376 -0.22197
-0.0555133 0.0044956 -0.222061
-0.0550338 0.00448197 -0.221387
-0.0547472 0.00448397 -0.221486
-0.0544007 0.00448107 -0.221343
-0.0541245 0.00448396 -0.221486
-0.0537508 0.00447875 -0.221228
-0.053289 0.00446611 -0.220604
-0.0530115 0.00446884 -0.220739
-0.0526945 0.00446827 -0.220711
-0.0524299 0.00447215 -0.220903
-0.0520955 0.00447009 -0.220801
-0.0517257 0.00446495 -0.220547
-0.0514262 0.00446586 -0.220592
-0.0511605 0.00446973 -0.220783
-0.0508315 0.00446808 -0.220701
-0.0504545 0.00446217 -0.220409
-0.0499727 0.00444685 -0.219653
-0.0496522 0.0044458 -0.219601
-0.0493384 0.00444532 -0.219577
-0.0490886 0.00445065 -0.21984
-0.0486989 0.00444329 -0.219477
-0.0483698 0.00444138 -0.219383
-0.0480524 0.00444054 -0.219341
-0.0477956 0.00444532 -0.219577
-0.0474383 0.00444076 -0.219352
-0.0470825 0.00443628 -0.219131
-0.0467043 0.00442961 -0.218801
-0.046331 0.00442333 -0.218491
-0.0459757 0.00441869 -0.218262
-0.045713 0.00442295 -0.218472
-0.0454748 0.00442965 -0.218803
-0.0451794 0.00443084 -0.218862
-0.0447442 0.00441823 -0.218239
-0.0444195 0.00441644 -0.21815
-0.0440854 0.00441368 -0.218014
-0.0437592 0.00441168 -0.217915
-0.043433 0.00440965 -0.217815
-0.0430985 0.00440674 -0.217671
-0.0428181 0.00440937 -0.217801
-0.0423655 0.00439416 -0.21705
-0.0420387 0.00439189 -0.216938
-0.0417241 0.00439087 -0.216887
-0.0415216 0.00440171 -0.217423
-0.0411665 0.00439641 -0.217161
-0.0408874 0.00439922 -0.2173
-0.0405544 0.00439622 -0.217152
-0.0403153 0.00440343 -0.217508
-0.0399428 0.00439607 -0.217145
-0.0396009 0.004392 -0.216943
-0.0392314 0.00438478 -0.216587
-0.0389608 0.00438857 -0.216774
-0.0386845 0.00439179 -0.216933
-0.0383747 0.00439122 -0.216905
-0.0379992 0.00438307 -0.216502
-0.0376822 0.00438158 -0.216429
-0.0374209 0.0043866 -0.216677
-0.037203 0.00439684 -0.217182
-0.0368216 0.00438775 -0.216734
-0.0365189 0.00438798 -0.216745
-0.0361582 0.00438118 -0.216409
-0.035882 0.00438459 -0.216577
-0.0355171 0.00437712 -0.216208
-0.035206 0.00437622 -0.216164
-0.034863 0.00437129 -0.215921
-0.0346226 0.00437927 -0.216315
-0.0343086 0.00437799 -0.216251
-0.0340732 0.0043868 -0.216687
-0.0336891 0.00437646 -0.216176
-0.0334763 0.00438839 -0.216765
-0.0331337 0.00438336 -0.216517
-0.0328688 0.00438861 -0.216776
-0.0324963 0.00437948 -0.216325
-0.0322912 0.00439292 -0.216989
-0.0320375 0.00439996 -0.217337
-0.0317212 0.00439845 -0.217262
-0.031344 0.00438838 -0.216765
-0.030988 0.00438111 -0.216405
-0.0307059 0.00438426 -0.216561
-0.0303821 0.00438145 -0.216422
-0.0300542 0.00437798 -0.216251
-0.0296521 0.00436353 -0.215537
-0.0294799 0.00438296 -0.216497
-0.0291909 0.00438524 -0.216609
-0.0289908 0.00440108 -0.217392
-0.0284811 0.00436974 -0.215844
-0.028312 0.00439056 -0.216872
-0.0279276 0.00437807 -0.216255
-0.027576 0.0043705 -0.215882
-0.0272161 0.00436145 -0.215434
-0.0269764 0.00437167 -0.215939
-0.0267079 0.0043774 -0.216222
-0.0263449 0.00436758 -0.215737
-0.026084 0.00437468 -0.216088
-0.0257583 0.00437092 -0.215902
-0.0254209 0.0043651 -0.215614
-0.0251025 0.00436241 -0.215482
-0.0248111 0.00436443 -0.215581
-0.024554 0.00437259 -0.215985
-0.024206 0.00436457 -0.215588
-0.0240275 0.00438729 -0.216711
-0.0237079 0.00438449 -0.216572
-0.023508 0.00440406 -0.217539
-0.0232346 0.00441019 -0.217842
-0.0230161 0.00442704 -0.218674
-0.0226803 0.00442148 -0.2184
-0.0223069 0.00440834 -0.21775
-0.0219995 0.00440807 -0.217737
-0.0217582 0.0044212 -0.218386
-0.0215093 0.00443315 -0.218976
-0.0211185 0.00441578 -0.218118
-0.0207099 0.00439412 -0.217048
-0.0203443 0.00438106 -0.216403
-0.0201949 0.00441488 -0.218074
-0.0199834 0.00443595 -0.219114
-0.0197786 0.00445921 -0.220263
-0.0194488 0.00445456 -0.220033
-0.0190274 0.00442843 -0.218743
-0.0185412 0.00438615 -0.216655
-0.0182391 0.00438671 -0.216682
-0.0180895 0.00442461 -0.218554
-0.0178989 0.00445359 -0.219985
-0.0175155 0.00443479 -0.219057
-0.0171742 0.00442616 -0.218631
-0.0168803 0.00442965 -0.218803
-0.0164722 0.00440276 -0.217475
-0.016134 0.00439388 -0.217036
-0.0158898 0.00441074 -0.217869
-0.0157292 0.00445194 -0.219904
-0.0154048 0.00444752 -0.219686
-0.014978 0.00441271 -0.217966
-0.0145877 0.00438744 -0.216718
-0.0143858 0.00441896 -0.218275
-0.0142747 0.00448038 -0.221309
-0.0139854 0.00448733 -0.221652
-0.0135633 0.00445102 -0.219858
-0.0131026 0.00440007 -0.217342
-0.0129148 0.00444051 -0.219339
-0.0125967 0.00443702 -0.219167
-0.0123785 0.00446944 -0.220769
-0.0120778 0.00447297 -0.220943
-0.0118233 0.00449426 -0.221995
-0.0115049 0.00449175 -0.221871
-0.0110422 0.00443117 -0.218878
-0.0107026 0.00441795 -0.218225
-0.0104274 0.00443134 -0.218887
-0.0102504 0.00448848 -0.221709
-0.0099322 0.0044855 -0.221562
-0.00957914 0.00446605 -0.220601
-0.00930642 0.00448401 -0.221488
-0.00903465 0.00450369 -0.22246
-0.00904429 0.00467008 -0.230679
-0.00844007 0.00452009 -0.22327
-0.00789859 0.00439342 -0.217014
-0.00760175 0.00439811 -0.217245
-0.0073585 0.0044355 -0.219092
-0.00695771 0.00437705 -0.216205
-0.00664249 0.00436955 -0.215834
-0.00653081 0.00450162 -0.222358
-0.00628917 0.0045529 -0.224891
-0.0059125 0.00450667 -0.222608
-0.00559658 0.00450417 -0.222484
-0.00527092 0.00449307 -0.221936
-0.00494694 0.00448211 -0.221394
-0.0044019 0.00425593 -0.210222
-0.00448241 0.00464552 -0.229466
-0.00398657 0.0044519 -0.219902
-0.00369802 0.00447667 -0.221126
-0.00341467 0.00451286 -0.222913
-0.00309108 0.0044978 -0.22217
-0.00276074 0.00446844 -0.220719
-0.00246588 0.00449633 -0.222097
-0.00216522 0.00452021 -0.223277
-0.00181799 0.00443849 -0.21924
-0.00150019 0.00440993 -0.217829
-0.0011987 0.00442693 -0.218669
-0.000896439 0.00445187 -0.219901
-0.000584132 0.00442689 -0.218667
-0.000276242 0.00441708 -0.218182
3.05855e-05 0.00445092 -0.219854
0 0 -0
-0 0 -0
-0.161135 0.00487863 -0.225325
-0.162269 0.00492264 -0.227358
-0.165308 0.00502473 -0.232073
-0.168155 0.00512135 -0.236536
-0.169502 0.00517261 -0.238903
-0.163258 0.00499194 -0.230559
-0.157905 0.00483786 -0.223443
-0.149192 0.00458004 -0.211535
-0.159822 0.00491616 -0.227059
-0.16111 0.00496569 -0.229346
-0.158993 0.00491027 -0.226787
-0.162738 0.00503602 -0.232595
-0.164132 0.00508937 -0.235059
-0.161468 0.00501687 -0.23171
-0.162619 0.00506285 -0.233834
-0.160684 0.00501272 -0.231518
-0.159304 0.00497976 -0.229996
-0.159252 0.00498826 -0.230389
-0.158844 0.0049856 -0.230266
-0.163575 0.00514458 -0.237609
-0.161488 0.00508934 -0.235057
-0.161399 0.00509694 -0.235408
-0.15638 0.00494859 -0.228556
-0.155608 0.00493431 -0.227897
-0.158241 0.00502813 -0.23223
-0.159721 0.00508566 -0.234887
-0.161445 0.0051512 -0.237914
-0.158515 0.0050682 -0.234081
-0.161 0.00515835 -0.238245
-0.161271 0.00517781 -0.239143
-0.162038 0.00521328 -0.240782
-0.158279 0.005103 -0.235688
-0.15728 0.00508143 -0.234692
-0.157846 0.00511043 -0.236031
-0.157269 0.0051025 -0.235665
-0.154452 0.00502167 -0.231932
-0.158386 0.00516044 -0.238341
-0.1601 0.00522735 -0.241431
-0.158126 0.00517387 -0.238961
-0.157767 0.00517312 -0.238927
-0.158112 0.00519548 -0.23996
-0.158061 0.00520491 -0.240395
-0.158252 0.00522237 -0.241201
-0.157591 0.0052117 -0.240708
-0.158439 0.00525101 -0.242524
-0.158914 0.0052781 -0.243775
-0.159214 0.0052995 -0.244764
-0.159293 0.0053136 -0.245415
-0.161042 0.0053836 -0.248648
-0.162379 0.00544009 -0.251257
-0.157726 0.00529572 -0.244589
-0.15636 0.00526131 -0.243
-0.156498 0.00527751 -0.243748
-0.155352 0.00525034 -0.242493
-0.154266 0.00522509 -0.241327
-0.154785 0.00525424 -0.242673
-0.155717 0.00529755 -0.244674
-0.155906 0.00531571 -0.245512
-0.154782 0.00528907 -0.244282
-0.153924 0.00527145 -0.243468
-0.156272 0.00536379 -0.247733
-0.154605 0.00531842 -0.245638
-0.154336 0.00532105 -0.245759
-0.154655 0.005344 -0.246819
-0.153937 0.00533115 -0.246225
-0.155012 0.00538047 -0.248504
-0.15511 0.00539602 -0.249221
-0.154904 0.00540108 -0.249455
-0.155198 0.00542358 -0.250495
-0.15469 0.00541812 -0.250242
-0.153865 0.00540152 -0.249475
-0.153202 0.0053905 -0.248967
-0.153367 0.00540868 -0.249806
-0.1538 0.00543638 -0.251086
-0.153934 0.00545363 -0.251882
-0.154906 0.00550072 -0.254057
-0.154759 0.00550817 -0.254402
-0.154197 0.00550088 -0.254064
-0.153584 0.00549172 -0.253642
-0.153288 0.0054939 -0.253742
-0.152559 0.00548054 -0.253125
-0.152043 0.00547475 -0.252858
-0.151759 0.00547733 -0.252977
-0.151918 0.00549593 -0.253836
-0.152421 0.00552713 -0.255277
-0.153091 0.0055645 -0.257003
-0.153042 0.00557589 -0.257529
-0.151865 0.00554611 -0.256154
-0.150684 0.00551606 -0.254766
-0.150887 0.00553663 -0.255716
-0.15157 0.00557499 -0.257488
-0.151864 0.00559914 -0.258603
-0.152198 0.00562494 -0.259795
-0.151455 0.00561092 -0.259147
-0.149718 0.00555996 -0.256793
-0.147858 0.00550415 -0.254216
-0.146348 0.00546113 -0.252229
-0.147263 0.00550861 -0.254422
-0.149066 0.00558963 -0.258164
-0.149957 0.00563675 -0.26034
-0.149634 0.00563835 -0.260414
-0.148733 0.00561815 -0.259481
-0.149228 0.00565072 -0.260985
-0.148894 0.00565194 -0.261041
-0.147386 0.00560852 -0.259036
-0.145514 0.005551 -0.256379
-0.147449 0.00563878 -0.260434
-0.148298 0.00568534 -0.262584
-0.149224 0.00573514 -0.264884
-0.148212 0.00571048 -0.263745
-0.147021 0.00567881 -0.262282
-0.146388 0.00566855 -0.261809
-0.146618 0.00569178 -0.262881
-0.146124 0.00568692 -0.262657
-0.145868 0.00569134 -0.262861
-0.145153 0.00567781 -0.262236
-0.145475 0.00570489 -0.263487
-0.145036 0.00570216 -0.263361
-0.145267 0.00572588 -0.264457
-0.145457 0.00574809 -0.265482
-0.144501 0.00572496 -0.264414
-0.143649 0.00570587 -0.263533
-0.14361 0.00571907 -0.264142
-0.144737 0.00577891 -0.266906
-0.143963 0.00576294 -0.266168
-0.142775 0.00573026 -0.264659
-0.142101 0.0057181 -0.264097
-0.142534 0.00575053 -0.265595
-0.143051 0.00578655 -0.267259
-0.142788 0.00579112 -0.26747
-0.14215 0.00578044 -0.266977
-0.141827 0.00578259 -0.267076
-0.141515 0.00578516 -0.267195
-0.141719 0.00580894 -0.268293
-0.142365 0.00585097 -0.270234
-0.142747 0.00588238 -0.271684
-0.142828 0.00590149 -0.272567
-0.141683 0.0058699 -0.271108
-0.141097 0.00586138 -0.270715
-0.140391 0.00584784 -0.27009
-0.140197 0.00585557 -0.270446
-0.139611 0.00584698 -0.27005
-0.139475 0.00585718 -0.270521
-0.139683 0.00588194 -0.271664
-0.139755 0.0059011 -0.272549
-0.139616 0.00591143 -0.273026
-0.139496 0.00592264 -0.273544
-0.139116 0.0059228 -0.273552
-0.13876 0.00592403 -0.273608
-0.138479 0.00592845 -0.273813
-0.138228 0.00593422 -0.274079
-0.137031 0.00589928 -0.272465
-0.136376 0.00588751 -0.271922
-0.13542 0.00586266 -0.270774
-0.134314 0.00583116 -0.269319
-0.133533 0.00581366 -0.268511
-0.133801 0.00584183 -0.269812
-0.133219 0.00583292 -0.2694
-0.133301 0.00585314 -0.270334
-0.132722 0.00584438 -0.26993
-0.133366 0.00588957 -0.272017
-0.132962 0.00588863 -0.271973
-0.13321 0.0059166 -0.273265
-0.132817 0.00591619 -0.273246
-0.132238 0.00590748 -0.272844
-0.131207 0.0058785 -0.271505
-0.131193 0.00589498 -0.272266
-0.131293 0.00591673 -0.273271
-0.131004 0.00592103 -0.27347
-0.130032 0.00589439 -0.272239
-0.129546 0.00588969 -0.272022
-0.129172 0.00589005 -0.272039
-0.130293 0.0059588 -0.275214
-0.130753 0.00599767 -0.277009
-0.130228 0.00599142 -0.276721
-0.128388 0.00592444 -0.273627
-0.127711 0.0059109 -0.273002
-0.127924 0.0059386 -0.274281
-0.128219 0.00597031 -0.275746
-0.128094 0.00598257 -0.276312
-0.127786 0.0059863 -0.276484
-0.127237 0.00597879 -0.276138
-0.12722 0.00599626 -0.276944
-0.127299 0.00601841 -0.277967
-0.12763 0.0060526 -0.279547
-0.127196 0.00605065 -0.279456
-0.126839 0.00605238 -0.279537
-0.126278 0.00604432 -0.279164
-0.126024 0.00605096 -0.279471
-0.125515 0.00604537 -0.279213
-0.125416 0.00605951 -0.279866
-0.125053 0.00606098 -0.279933
-0.124849 0.00607022 -0.28036
-0.124292 0.00606227 -0.279993
-0.124145 0.00607432 -0.28055
-0.123761 0.0060748 -0.280572
-0.123909 0.00610149 -0.281805
-0.123112 0.00608171 -0.280891
-0.123254 0.00610828 -0.282118
-0.123171 0.00612387 -0.282838
-0.123056 0.00613796 -0.283489
-0.122503 0.00613022 -0.283131
-0.12187 0.00611842 -0.282586
-0.121911 0.0061405 -0.283606
-0.122353 0.00618297 -0.285568
-0.122174 0.00619424 -0.286088
-0.121095 0.00615979 -0.284497
-0.120203 0.00613466 -0.283337
-0.120491 0.00616984 -0.284961
-0.120543 0.00619309 -0.286035
-0.119932 0.00618227 -0.285535
-0.119284 0.00616955 -0.284948
-0.119575 0.00620543 -0.286605
-0.119508 0.00622287 -0.287411
-0.118899 0.00621215 -0.286915
-0.117664 0.00616858 -0.284903
-0.117 0.00615468 -0.284261
-0.117144 0.00618336 -0.285586
-0.117597 0.00622862 -0.287676
-0.117481 0.00624393 -0.288383
-0.117102 0.00624534 -0.288448
-0.116872 0.00625471 -0.288881
-0.116739 0.00626941 -0.28956
-0.116402 0.00627316 -0.289733
-0.1163 0.00628964 -0.290494
-0.116162 0.00630433 -0.291173
-0.11563 0.00629764 -0.290864
-0.114814 0.00627537 -0.289835
-0.114394 0.00627466 -0.289803
-0.114045 0.00627789 -0.289952
-0.113553 0.0062732 -0.289735
-0.112137 0.00621728 -0.287153
-0.110128 0.00612793 -0.283026
-0 0 -0
-0.0973712 0.00545752 -0.252062
-0.0940856 0.00529262 -0.244446
-0.0928381 0.00524159 -0.242089
-0.0922383 0.00522688 -0.241409
-0.0917829 0.00522027 -0.241104
-0.0912002 0.00520634 -0.240461
-0.0908815 0.00520745 -0.240512
-0.0905781 0.00520943 -0.240604
-0.0901387 0.00520358 -0.240334
-0.0892614 0.00517232 -0.23889
-0.0883243 0.00513734 -0.237274
-0.0876874 0.00511962 -0.236456
-0.0873382 0.00511863 -0.23641
-0.0871604 0.00512771 -0.236829
-0.086821 0.00512732 -0.236811
-0.0863699 0.00512031 -0.236487
-0.0856933 0.00509982 -0.235541
-0.0853362 0.00509826 -0.235469
-0.0848757 0.00509049 -0.23511
-0.0845975 0.00509362 -0.235255
-0.0841723 0.00508791 -0.234991
-0.0836853 0.00507839 -0.234552
-0.0830553 0.00506009 -0.233706
-0.0825398 0.00504865 -0.233178
-0.0822078 0.00504838 -0.233166
-0.0820112 0.00505646 -0.233539
-0.0817895 0.00506305 -0.233843
-0.0814783 0.00506413 -0.233893
-0.0810524 0.00505807 -0.233613
-0.0805598 0.00504777 -0.233137
-0.0801002 0.00503947 -0.232754
-0.0797753 0.0050396 -0.23276
-0.0793629 0.00503419 -0.23251
-0.0789752 0.00503031 -0.232331
-0.0786491 0.00503033 -0.232332
-0.0783286 0.00503071 -0.23235
-0.077987 0.00502974 -0.232305
-0.0775553 0.00502293 -0.23199
-0.0771964 0.00502078 -0.231891
-0.0767703 0.00501424 -0.231588
-0.0763089 0.00500532 -0.231177
-0.0760412 0.00500908 -0.23135
-0.0757943 0.00501426 -0.231589
-0.0754273 0.0050115 -0.231462
-0.0749422 0.00500083 -0.230969
-0.0744452 0.00498928 -0.230436
-0.0741715 0.00499265 -0.230591
-0.0738359 0.00499186 -0.230555
-0.0736044 0.00499815 -0.230845
-0.0732192 0.004994 -0.230654
-0.0728969 0.00499412 -0.23066
-0.072443 0.0049852 -0.230247
-0.0721043 0.00498414 -0.230199
-0.0716479 0.00497491 -0.229772
-0.0712481 0.00496955 -0.229525
-0.0707126 0.00495463 -0.228836
-0.0703268 0.00495011 -0.228626
-0.0698939 0.00494222 -0.228262
-0.069481 0.00493567 -0.22796
-0.0691239 0.00493305 -0.227839
-0.0688611 0.00493716 -0.228028
-0.0685897 0.00494069 -0.228192
-0.0681115 0.00492929 -0.227665
-0.0677532 0.0049265 -0.227536
-0.0673379 0.00491952 -0.227214
-0.0669499 0.00491447 -0.226981
-0.0665307 0.00490708 -0.226639
-0.0661187 0.00490015 -0.226319
-0.0657687 0.00489777 -0.226209
-0.0653097 0.0048872 -0.225721
-0.0650362 0.00489049 -0.225873
-0.0647805 0.00489515 -0.226089
-0.0644111 0.00489123 -0.225907
-0.0639872 0.00488311 -0.225532
-0.0634977 0.00486987 -0.224921
-0.0630994 0.00486354 -0.224628
-0.0627251 0.00485899 -0.224418
-0.0623662 0.0048556 -0.224262
-0.0620445 0.00485509 -0.224238
-0.0616793 0.00485115 -0.224056
-0.061362 0.00485095 -0.224047
-0.0610366 0.00485011 -0.224008
-0.0606016 0.00484051 -0.223565
-0.0602361 0.00483639 -0.223374
-0.0597952 0.00482614 -0.222901
-0.0596167 0.00483707 -0.223406
-0.059393 0.00484443 -0.223746
-0.059056 0.00484258 -0.22366
-0.0585686 0.00482831 -0.223001
-0.0581449 0.00481916 -0.222579
-0.0579027 0.00482504 -0.22285
-0.0575018 0.00481769 -0.222511
-0.0571005 0.00481022 -0.222166
-0.0567835 0.00480982 -0.222147
-0.0565746 0.00481861 -0.222553
-0.0562823 0.00482036 -0.222634
-0.0558714 0.00481192 -0.222244
-0.0555152 0.00480812 -0.222069
-0.0550488 0.00479467 -0.221448
-0.0547271 0.00479375 -0.221405
-0.0543896 0.00479143 -0.221298
-0.0540867 0.00479215 -0.221331
-0.0537673 0.0047914 -0.221297
-0.0533309 0.00478015 -0.220777
-0.0530042 0.00477867 -0.220709
-0.0526283 0.00477271 -0.220433
-0.0523277 0.00477355 -0.220472
-0.0519786 0.00476994 -0.220305
-0.0516036 0.0047639 -0.220027
-0.0513239 0.00476663 -0.220153
-0.0509933 0.00476465 -0.220061
-0.0506696 0.00476329 -0.219998
-0.0503186 0.00475934 -0.219816
-0.0500043 0.00475882 -0.219792
-0.0497595 0.00476496 -0.220075
-0.0493524 0.00475552 -0.21964
-0.0490512 0.00475625 -0.219673
-0.0486161 0.00474391 -0.219103
-0.048368 0.00474978 -0.219374
-0.0479713 0.00474105 -0.218971
-0.0477454 0.00474918 -0.219347
-0.0473598 0.00474144 -0.218989
-0.0471123 0.00474751 -0.219269
-0.0467713 0.00474417 -0.219115
-0.0464309 0.00474085 -0.218962
-0.0460703 0.00473541 -0.218711
-0.0457935 0.00473858 -0.218857
-0.0455255 0.00474269 -0.219047
-0.0452357 0.00474459 -0.219134
-0.0447597 0.00472684 -0.218315
-0.0444785 0.00472955 -0.21844
-0.0441073 0.00472267 -0.218122
-0.0438278 0.00472558 -0.218257
-0.0435386 0.00472749 -0.218345
-0.0431614 0.0047198 -0.217989
-0.0429092 0.00472575 -0.218264
-0.0425113 0.00471564 -0.217797
-0.0421672 0.00471139 -0.217601
-0.0418425 0.00470925 -0.217502
-0.0415405 0.00470968 -0.217522
-0.0412732 0.00471405 -0.217724
-0.0409371 0.00471059 -0.217564
-0.0406263 0.00470999 -0.217537
-0.0403105 0.00470882 -0.217482
-0.0399593 0.00470345 -0.217234
-0.0396161 0.00469895 -0.217027
-0.0393133 0.00469921 -0.217039
-0.0389942 0.00469751 -0.21696
-0.0386579 0.00469369 -0.216784
-0.0383081 0.00468817 -0.216529
-0.0379296 0.00467901 -0.216106
-0.0376596 0.0046832 -0.216299
-0.0373906 0.00468757 -0.216501
-0.0372457 0.00470771 -0.217431
-0.0368831 0.00470044 -0.217096
-0.0365478 0.00469656 -0.216916
-0.0361348 0.00468254 -0.216269
-0.0358832 0.00468938 -0.216584
-0.0355826 0.00468988 -0.216608
-0.0352197 0.00468209 -0.216248
-0.0348647 0.00467524 -0.215931
-0.0345534 0.00467417 -0.215882
-0.0342797 0.00467822 -0.216069
-0.0339772 0.00467837 -0.216076
-0.0337162 0.00468429 -0.21635
-0.0334885 0.00469501 -0.216844
-0.0331963 0.00469676 -0.216926
-0.0328768 0.00469468 -0.216829
-0.0325157 0.00468655 -0.216454
-0.0322224 0.00468813 -0.216527
-0.0319778 0.00469689 -0.216931
-0.0317293 0.00470525 -0.217318
-0.0313698 0.00469715 -0.216943
-0.0309948 0.00468653 -0.216453
-0.0307397 0.00469403 -0.216799
-0.0304476 0.00469596 -0.216889
-0.0301157 0.00469174 -0.216693
-0.0296993 0.00467413 -0.21588
-0.0294627 0.00468474 -0.21637
-0.0292322 0.00469656 -0.216916
-0.028872 0.00468757 -0.216501
-0.0284423 0.00466699 -0.21555
-0.0281324 0.00466582 -0.215496
-0.0278159 0.00466353 -0.215391
-0.0275356 0.00466733 -0.215566
-0.0272966 0.00467828 -0.216072
-0.0271022 0.0046972 -0.216946
-0.0268064 0.00469879 -0.217019
-0.0263921 0.00467941 -0.216124
-0.0260564 0.00467367 -0.215859
-0.0257498 0.00467308 -0.215832
-0.0254653 0.00467652 -0.21599
-0.0251017 0.00466536 -0.215475
-0.0247594 0.00465793 -0.215132
-0.0245028 0.00466662 -0.215533
-0.0242032 0.00466726 -0.215563
-0.023959 0.00467872 -0.216092
-0.0236899 0.00468556 -0.216408
-0.0235167 0.00471179 -0.217619
-0.0232118 0.00471198 -0.217628
-0.022959 0.00472287 -0.218132
-0.0226874 0.00473016 -0.218468
-0.0223366 0.0047209 -0.21804
-0.0220471 0.00472452 -0.218207
-0.0216981 0.00471531 -0.217782
-0.0214131 0.00471995 -0.217997
-0.0209685 0.00468903 -0.216569
-0.020603 0.00467514 -0.215927
-0.0203191 0.00467965 -0.216135
-0.0201399 0.00470876 -0.21748
-0.0199448 0.004735 -0.218691
-0.0196927 0.00474832 -0.219307
-0.019294 0.00472614 -0.218282
-0.0189299 0.00471186 -0.217623
-0.0185366 0.00468973 -0.216601
-0.0182701 0.00469945 -0.21705
-0.0180876 0.00473152 -0.218531
-0.0177365 0.00471979 -0.217989
-0.0173663 0.00470251 -0.217191
-0.0170661 0.00470387 -0.217254
-0.0168493 0.00472871 -0.218401
-0.016472 0.0047086 -0.217472
-0.0161671 0.00470879 -0.217481
-0.0158683 0.00471081 -0.217574
-0.0156714 0.00474375 -0.219096
-0.0153394 0.00473633 -0.218753
-0.014949 0.00471015 -0.217544
-0.0146033 0.0046973 -0.216951
-0.0143846 0.00472559 -0.218257
-0.0142058 0.00476854 -0.220241
-0.0138597 0.00475597 -0.21966
-0.0134566 0.00472283 -0.218129
-0.013155 0.0047246 -0.218211
-0.0129289 0.00475422 -0.219579
-0.0126519 0.0047661 -0.220128
-0.0124315 0.00480045 -0.221714
-0.0121627 0.00481738 -0.222497
-0.0117518 0.00477744 -0.220652
-0.0113535 0.00474059 -0.21895
-0.0109312 0.0046914 -0.216678
-0.0106102 0.00468412 -0.216342
-0.0103589 0.00470806 -0.217447
-0.0102274 0.00478957 -0.221212
-0.0100653 0.00486143 -0.224531
-0.00962357 0.0047985 -0.221624
-0.00926149 0.0047724 -0.220419
-0.00899321 0.0047945 -0.22144
-0.0087239 0.00481762 -0.222508
-0.00834714 0.00478091 -0.220812
-0.0080257 0.00477428 -0.220506
-0.00764793 0.00473226 -0.218565
-0.00731542 0.0047159 -0.217809
-0.00698747 0.00470118 -0.21713
-0.00665213 0.00467992 -0.216148
-0.0064109 0.004726 -0.218276
-0.00625847 0.00484546 -0.223793
-0.0059449 0.0048462 -0.223827
-0.00563239 0.00484793 -0.223908
-0.00520166 0.0047421 -0.21902
-0.00492447 0.00477174 -0.220388
-0.00471566 0.00487605 -0.225206
-0.00417871 0.00463167 -0.213919
-0.0040142 0.00479421 -0.221426
-0.00369447 0.00478311 -0.220914
-0.00340179 0.0048082 -0.222072
-0.00309569 0.00481748 -0.222501
-0.00272703 0.00472056 -0.218025
-0.00243111 0.00474093 -0.218965
-0.00210092 0.00469072 -0.216647
-0.00180522 0.00471352 -0.217699
-0.00150359 0.004727 -0.218322
-0.00120607 0.00476363 -0.220014
-0.000888312 0.00471802 -0.217907
-0.000605579 0.00490829 -0.226695
-0.000278985 0.00477087 -0.220348
3.05828e-05 0.00475974 -0.219834
0 0 -0
-0 0 -0
-0.15893 0.00512447 -0.222242
-0.16193 0.00523147 -0.226882
-0.164946 0.00533943 -0.231564
-0.168551 0.00546693 -0.237094
-0.166939 0.00542536 -0.235291
-0.158066 0.00514717 -0.223226
-0.155095 0.00506049 -0.219467
-0.158546 0.00518338 -0.224797
-0.158282 0.00518509 -0.224871
-0.15839 0.00519899 -0.225474
-0.160006 0.00526257 -0.228231
-0.161174 0.00531163 -0.230359
-0.160322 0.00529421 -0.229603
-0.161852 0.0053555 -0.232261
-0.16217 0.00537687 -0.233188
-0.160498 0.00533219 -0.231251
-0.158203 0.00526662 -0.228407
-0.158053 0.00527233 -0.228654
-0.160389 0.00536114 -0.232506
-0.159912 0.00535611 -0.232288
-0.160394 0.00538323 -0.233464
-0.160308 0.00539139 -0.233818
-0.159084 0.00536119 -0.232508
-0.157778 0.00532815 -0.231075
-0.160595 0.00543446 -0.235686
-0.162614 0.00551413 -0.239141
-0.160375 0.00544949 -0.236338
-0.158289 0.00538976 -0.233747
-0.157481 0.00537339 -0.233037
-0.158426 0.00541689 -0.234924
-0.158874 0.00544356 -0.23608
-0.159391 0.0054727 -0.237344
-0.158692 0.00546015 -0.2368
-0.157635 0.00543517 -0.235716
-0.155965 0.00538891 -0.23371
-0.157146 0.00544116 -0.235976
-0.157485 0.00546445 -0.236987
-0.156935 0.0054569 -0.236659
-0.157522 0.00548894 -0.238049
-0.157913 0.00551427 -0.239147
-0.158903 0.00556066 -0.241159
-0.157715 0.00553091 -0.239869
-0.156396 0.00549638 -0.238371
-0.156349 0.00550655 -0.238812
-0.158063 0.00557887 -0.241949
-0.159651 0.00564708 -0.244907
-0.159524 0.00565476 -0.24524
-0.159103 0.00565204 -0.245122
-0.159364 0.00567362 -0.246058
-0.16056 0.00572863 -0.248443
-0.160712 0.00574654 -0.24922
-0.156822 0.00561969 -0.243719
-0.15544 0.00558235 -0.242099
-0.156191 0.00562163 -0.243803
-0.156241 0.00563579 -0.244417
-0.156028 0.00564049 -0.244621
-0.156056 0.00565397 -0.245205
-0.156741 0.00569136 -0.246827
-0.155448 0.00565694 -0.245334
-0.153891 0.0056127 -0.243416
-0.152598 0.00557795 -0.241909
-0.154254 0.00565107 -0.24508
-0.154848 0.00568553 -0.246574
-0.154639 0.0056906 -0.246794
-0.154415 0.00569513 -0.246991
-0.154207 0.00570026 -0.247213
-0.153368 0.00568204 -0.246423
-0.15353 0.00570091 -0.247242
-0.153286 0.00570478 -0.247409
-0.154248 0.00575362 -0.249527
-0.154109 0.00576155 -0.249871
-0.153139 0.00573835 -0.248865
-0.152044 0.00571035 -0.247651
-0.151665 0.00570917 -0.2476
-0.153101 0.00577648 -0.250519
-0.153911 0.00582043 -0.252425
-0.153079 0.00580233 -0.25164
-0.152464 0.00579241 -0.251209
-0.152531 0.00580842 -0.251904
-0.15277 0.00583103 -0.252885
-0.152386 0.00582996 -0.252838
-0.152149 0.00583449 -0.253034
-0.151666 0.00582958 -0.252822
-0.151425 0.00583401 -0.253014
-0.150816 0.0058242 -0.252588
-0.151304 0.00585685 -0.254004
-0.150591 0.00584303 -0.253405
-0.14992 0.00583077 -0.252873
-0.14822 0.00577833 -0.250599
-0.149 0.0058226 -0.252519
-0.149875 0.00587075 -0.254607
-0.151757 0.00595872 -0.258422
-0.151671 0.00596963 -0.258895
-0.150706 0.00594588 -0.257865
-0.149656 0.00591871 -0.256687
-0.147794 0.00585917 -0.254105
-0.147049 0.00584379 -0.253438
-0.148149 0.00590175 -0.255952
-0.149223 0.00595902 -0.258435
-0.148902 0.0059607 -0.258508
-0.147537 0.00592052 -0.256765
-0.147954 0.00595179 -0.258122
-0.147797 0.0059601 -0.258482
-0.147297 0.00595455 -0.258242
-0.146119 0.00592153 -0.256809
-0.146507 0.00595195 -0.258129
-0.147681 0.00601456 -0.260844
-0.148156 0.00604891 -0.262333
-0.147214 0.00602545 -0.261316
-0.146237 0.00600042 -0.260231
-0.145437 0.00598254 -0.259455
-0.145065 0.00598224 -0.259442
-0.1453 0.00600702 -0.260517
-0.145213 0.00601861 -0.261019
-0.145181 0.00603253 -0.261623
-0.145081 0.00604368 -0.262107
-0.144744 0.00604496 -0.262162
-0.144974 0.00607002 -0.263249
-0.145323 0.00610022 -0.264559
-0.145011 0.0061027 -0.264667
-0.143472 0.00605348 -0.262532
-0.143142 0.00605512 -0.262603
-0.14302 0.0060656 -0.263058
-0.144091 0.00612686 -0.265714
-0.14391 0.00613504 -0.266069
-0.142246 0.00607994 -0.263679
-0.141519 0.00606465 -0.263016
-0.141636 0.00608556 -0.263923
-0.141934 0.00611436 -0.265172
-0.14198 0.00613246 -0.265957
-0.141482 0.00612708 -0.265724
-0.141412 0.00614025 -0.266295
-0.141192 0.00614697 -0.266586
-0.141728 0.00618672 -0.26831
-0.141746 0.00620399 -0.269059
-0.142682 0.00626167 -0.271561
-0.141673 0.00623403 -0.270362
-0.140589 0.00620297 -0.269015
-0.139565 0.00617443 -0.267777
-0.139642 0.00619451 -0.268648
-0.139442 0.0062024 -0.26899
-0.139046 0.00620162 -0.268957
-0.138592 0.00619822 -0.268809
-0.138574 0.00621435 -0.269509
