ply
format ascii 1.0
element vertex 1932
property float x
property float y
property float z
end_header
0.237528 -0.671024 0.05626
0.236016 -0.669412 0.0561248
0.234778 -0.668564 0.0560538
0.233988 -0.66899 0.0560895
0.233037 -0.668961 0.0560871
0.232001 -0.668684 0.0560638
0.231259 -0.669254 0.0561117
0.23074 -0.670481 0.0562145
0.230141 -0.671481 0.0562984
0.228912 -0.670646 0.0562283
0.22765 -0.669704 0.0561494
0.22647 -0.668998 0.0560902
0.225673 -0.669424 0.0561259
0.224467 -0.668633 0.0560596
0.223304 -0.667966 0.0560037
0.221755 -0.666132 0.0558499
0.220365 -0.664762 0.055735
0.219169 -0.663968 0.0556684
0.218749 -0.665529 0.0557993
0.218004 -0.666111 0.0558481
0.217259 -0.666698 0.0558973
0.216237 -0.666436 0.0558754
0.215463 -0.666939 0.0559176
0.214665 -0.667371 0.0559537
0.21347 -0.666569 0.0558865
0.212455 -0.666322 0.0558658
0.211787 -0.667166 0.0559366
0.210822 -0.667082 0.0559295
0.209862 -0.66701 0.0559235
0.2085 -0.665653 0.0558097
0.207522 -0.665517 0.0557983
0.206787 -0.666162 0.0558523
0.206039 -0.666769 0.0559033
0.205404 -0.667753 0.0559857
0.204199 -0.666882 0.0559127
0.203109 -0.66638 0.0558706
0.202112 -0.66618 0.0558539
0.201396 -0.666909 0.055915
0.200695 -0.667695 0.0559809
0.199469 -0.666731 0.0559001
0.198381 -0.666225 0.0558577
0.196963 -0.664599 0.0557213
0.195948 -0.664324 0.0556983
0.195058 -0.664471 0.0557106
0.194354 -0.665257 0.0557765
0.193356 -0.66504 0.0557583
0.192331 -0.664729 0.0557323
0.191515 -0.66514 0.0557667
0.190699 -0.665551 0.0558012
0.189761 -0.665544 0.0558005
0.18829 -0.663654 0.0556421
0.187545 -0.664321 0.055698
0.186914 -0.665398 0.0557883
0.186203 -0.6662 0.0558555
0.185208 -0.665987 0.0558377
0.184251 -0.665911 0.0558313
0.18343 -0.666328 0.0558663
0.182543 -0.666505 0.0558812
0.181852 -0.66741 0.055957
0.180895 -0.667339 0.0559511
0.180115 -0.667921 0.0559999
0.179096 -0.667622 0.0559748
0.178218 -0.667848 0.0559937
0.17708 -0.667095 0.0559306
0.176164 -0.667178 0.0559375
0.174873 -0.665834 0.0558249
0.173803 -0.66532 0.0557818
0.172681 -0.664597 0.0557211
0.171878 -0.665105 0.0557638
0.170995 -0.665304 0.0557805
0.169975 -0.664973 0.0557527
0.168966 -0.664679 0.055728
0.16801 -0.664592 0.0557208
0.167178 -0.664996 0.0557546
0.166301 -0.665227 0.055774
0.165411 -0.665406 0.055789
0.164498 -0.665495 0.0557965
0.163516 -0.665306 0.0557806
0.162541 -0.665142 0.0557669
0.161448 -0.664491 0.0557123
0.160677 -0.665164 0.0557687
0.159686 -0.664928 0.055749
0.158661 -0.664551 0.0557173
0.157346 -0.662945 0.0555826
0.156269 -0.66233 0.0555311
0.155415 -0.662653 0.0555582
0.15449 -0.662682 0.0555607
0.153824 -0.663824 0.0556564
0.152938 -0.664032 0.0556738
0.152044 -0.664201 0.055688
0.15122 -0.664682 0.0557283
0.15049 -0.665586 0.0558041
0.149475 -0.665227 0.055774
0.148307 -0.664185 0.0556866
0.147387 -0.664244 0.0556915
0.146549 -0.664677 0.0557279
0.145638 -0.664781 0.0557366
0.144541 -0.664035 0.055674
0.143889 -0.665334 0.055783
0.142991 -0.665508 0.0557976
0.142047 -0.665466 0.055794
0.140915 -0.664535 0.055716
0.14019 -0.66553 0.0557994
0.139476 -0.666587 0.055888
0.138552 -0.666648 0.0558931
0.137568 -0.666417 0.0558737
0.136592 -0.666225 0.0558577
0.135652 -0.666205 0.055856
0.134715 -0.666202 0.0558557
0.133805 -0.666333 0.0558667
0.132816 -0.666069 0.0558446
0.131664 -0.664979 0.0557532
0.130866 -0.665669 0.0558111
0.129825 -0.665129 0.0557658
0.129034 -0.665873 0.0558281
0.127841 -0.664535 0.055716
0.126927 -0.664637 0.0557245
0.125941 -0.664362 0.0557014
0.12506 -0.664643 0.0557251
0.123895 -0.663404 0.0556211
0.122841 -0.662751 0.0555664
0.122031 -0.66341 0.0556217
0.121264 -0.664315 0.0556976
0.120327 -0.664292 0.0556956
0.119497 -0.664868 0.0557439
0.11836 -0.663734 0.0556488
0.117363 -0.663371 0.0556184
0.116295 -0.662596 0.0555534
0.115331 -0.662407 0.0555375
0.114333 -0.662021 0.0555052
0.1134 -0.662 0.0555035
0.11265 -0.663063 0.0555925
0.111848 -0.663833 0.0556571
0.110991 -0.66429 0.0556954
0.110006 -0.663976 0.0556691
0.108943 -0.663186 0.0556029
0.108014 -0.663204 0.0556044
0.106681 -0.660722 0.0553963
0.105569 -0.659575 0.0553001
0.104503 -0.658694 0.0552263
0.103792 -0.660059 0.0553407
0.102693 -0.658963 0.0552488
0.101665 -0.658299 0.0551932
0.100487 -0.656646 0.0550545
0.0997472 -0.657853 0.0551558
0.0990576 -0.659416 0.0552868
0.0981151 -0.65931 0.0552779
0.0971918 -0.659331 0.0552797
0.0962921 -0.659515 0.0552951
0.0955756 -0.660969 0.055417
0.0944398 -0.659523 0.0552958
0.0936677 -0.660614 0.0553872
0.0926702 -0.660121 0.0553459
0.0917863 -0.660436 0.0553723
0.0906643 -0.659026 0.0552541
0.0896385 -0.658294 0.0551927
0.0888359 -0.659203 0.0552689
0.0880623 -0.660348 0.0553649
0.087204 -0.660876 0.0554092
0.0862767 -0.660887 0.0554101
0.0853928 -0.661233 0.0554391
0.0846382 -0.6626 0.0555537
0.0836466 -0.662121 0.0555136
0.0825103 -0.660473 0.0553754
0.0813191 -0.658343 0.0551968
0.0801979 -0.656738 0.0550622
0.0792434 -0.656476 0.0550403
0.0784072 -0.657199 0.0551009
0.0776483 -0.658595 0.0552179
0.0767725 -0.659022 0.0552537
0.0757874 -0.658508 0.0552107
0.0748722 -0.658598 0.0552182
0.0739888 -0.658973 0.0552496
0.073248 -0.660643 0.0553897
0.0722658 -0.660151 0.0553484
0.0713909 -0.66064 0.0553894
0.0700707 -0.656965 0.0550813
0.0687677 -0.653357 0.0547788
0.0674914 -0.649908 0.0544896
0 -0 0
0 -0 0
0 -0 0
0 -0 0
0 -0 0
0 -0 0
0 -0 0
0 -0 0
0 -0 0
0 -0 0
0 -0 0
0 -0 0
0 -0 0
0 -0 0
0 -0 0
0 -0 0
0 -0 0
0 -0 0
0 -0 0
0 -0 0
0 -0 0
0.0495124 -0.678878 0.0569185
0 -0 0
0 -0 0
0 -0 0
0 -0 0
0 -0 0
0 -0 0
0 -0 0
0 -0 0
0 -0 0
0 -0 0
0 -0 0
0 -0 0
0 -0 0
0 -0 0
0 -0 0
0 -0 0
0 -0 0
0 -0 0
0 -0 0
0 -0 0
0 -0 0
0 -0 0
0 -0 0
0 -0 0
0 -0 0
0 -0 0
0 -0 0
0 -0 0
0 -0 0
0 -0 0
0 -0 0
0 -0 0
0 -0 0
0 -0 0
0 -0 0
0 -0 0
0 -0 0
0 -0 0
0 -0 0
0 -0 0
0 -0 0
0 -0 0
0 -0 0
0 -0 0
0 -0 0
0 -0 0
0 -0 0
0 -0 0
0 -0 0
0 -0 0
0 -0 0
-0 -0 0
-0 -0 0
0 -0 0
0.368362 -0.515104 0.0424629
0.366784 -0.513907 0.0423642
0.366574 -0.514627 0.0424235
0.36869 -0.51862 0.0427527
0.367198 -0.517544 0.042664
0.36929 -0.521526 0.0429922
0.370266 -0.523944 0.0431915
0.37212 -0.527617 0.0434943
0.374361 -0.531854 0.0438437
0.376173 -0.535497 0.0441439
0.368757 -0.525993 0.0433605
0 -0 0
0 -0 0
0.306766 -0.440215 0.0362894
0.308514 -0.443619 0.03657
0.306313 -0.441346 0.0363826
0.307388 -0.443793 0.0365843
0.306592 -0.443544 0.0365637
0.304849 -0.441921 0.03643
0.303914 -0.441465 0.0363924
0.302748 -0.440671 0.0363269
0.301145 -0.439236 0.0362086
0.299513 -0.437752 0.0360863
0.299178 -0.438162 0.0361201
0.301139 -0.441944 0.0364319
0.301764 -0.443776 0.0365829
0.301161 -0.443807 0.0365854
0.299161 -0.441775 0.0364179
0 -0 0
0 -0 0
0 -0 0
0 -0 0
0.393693 -0.587466 0.0484281
0.395705 -0.59171 0.0487779
0.39859 -0.597279 0.0492369
0.39894 -0.599064 0.0493841
0.398019 -0.598946 0.0493744
0.398174 -0.600448 0.0494982
0.39907 -0.603078 0.049715
0.39946 -0.604951 0.0498694
0.400206 -0.607373 0.0500691
0.400985 -0.609857 0.0502738
0.401457 -0.611883 0.0504408
0.401923 -0.613907 0.0506077
0.402943 -0.616789 0.0508453
0.404041 -0.619804 0.0510938
0.40438 -0.621664 0.0512471
0.403896 -0.622263 0.0512966
0.404365 -0.624338 0.0514676
0.405473 -0.627409 0.0517208
0.407569 -0.632026 0.0521014
0.40898 -0.6356 0.052396
0.409537 -0.637858 0.0525822
0.409215 -0.638756 0.0526561
0.409942 -0.641297 0.0528656
0.409751 -0.64241 0.0529573
0.406185 -0.638225 0.0526124
0.397605 -0.626126 0.051615
0.390895 -0.616925 0.0508565
0.385679 -0.610046 0.0502894
0 -0 0
0.360016 -0.571997 0.0471528
0.355043 -0.565358 0.0466055
0.353909 -0.564816 0.0465609
0.352388 -0.563653 0.046465
0.352728 -0.565468 0.0466146
0.354161 -0.569047 0.0469096
0.363342 -0.58512 0.0482346
0.372671 -0.601504 0.0495853
0.376224 -0.608619 0.0501718
0.376201 -0.609968 0.050283
0.374983 -0.609382 0.0502347
0.372348 -0.606484 0.0499958
0.371789 -0.606962 0.0500352
0.371379 -0.607688 0.050095
0.371491 -0.609272 0.0502257
0.370163 -0.608497 0.0501617
0.369189 -0.608301 0.0501456
0.368222 -0.608115 0.0501303
0.366704 -0.607016 0.0500397
0.365695 -0.606759 0.0500184
0.36459 -0.606338 0.0499838
0.364075 -0.606899 0.05003
0.362568 -0.605808 0.0499401
0.36225 -0.6067 0.0500136
0.361429 -0.606753 0.0500179
0.360475 -0.606583 0.050004
0.35973 -0.606764 0.0500189
0 -0 0
0.25633 -0.434416 0.0358113
0.256804 -0.436259 0.0359632
0.256593 -0.436944 0.0360196
0.255682 -0.436436 0.0359778
0.254835 -0.436037 0.0359449
0.254183 -0.435969 0.0359393
0.253958 -0.436635 0.0359942
0.254244 -0.438186 0.036122
0.254468 -0.439637 0.0362417
0.254603 -0.44094 0.0363491
0.254039 -0.441037 0.0363571
0.253356 -0.440928 0.0363481
0.25233 -0.440217 0.0362895
0.251199 -0.439322 0.0362157
0.250624 -0.439395 0.0362218
0.250156 -0.439658 0.0362434
0.249519 -0.439625 0.0362407
0.247689 -0.437483 0.0360641
0.244504 -0.432932 0.035689
0.241451 -0.428594 0.0353313
0.239303 -0.425844 0.0351046
0.238369 -0.425244 0.0350552
0.237646 -0.42502 0.0350368
0.237393 -0.425638 0.0350876
0.236752 -0.42556 0.0350813
0.236142 -0.425538 0.0350794
0.235823 -0.426042 0.0351209
0.237082 -0.429406 0.0353983
0.246012 -0.446717 0.0368253
0 -0 0
0 -0 0
0 -0 0
0.32587 -0.597829 0.0492823
0.32471 -0.59724 0.0492338
0.323933 -0.597355 0.0492433
0.323309 -0.597753 0.0492761
0.322117 -0.597102 0.0492224
0.320375 -0.595423 0.0490839
0 -0 0
0 -0 0
0.255878 -0.479309 0.039512
0.254347 -0.477699 0.0393794
0.253547 -0.477458 0.0393594
0.252411 -0.476578 0.039287
0.251495 -0.476112 0.0392485
0 -0 0
0.312379 -0.594537 0.049011
0.311177 -0.593838 0.0489533
0.309129 -0.591516 0.0487619
0 -0 0
0.23996 -0.461644 0.0380558
0.238967 -0.460979 0.038001
0 -0 0
0 -0 0
0.290301 -0.564597 0.0465428
0.290927 -0.567366 0.0467711
0.295993 -0.578832 0.0477163
0.305025 -0.598137 0.0493077
0.30313 -0.596064 0.0491368
0.301485 -0.594472 0.0490055
0.300116 -0.593417 0.0489186
0.299769 -0.594381 0.0489981
0.298982 -0.594478 0.0490061
0.298978 -0.596135 0.0491427
0.299166 -0.598188 0.0493119
0.300823 -0.603194 0.0497246
0.304617 -0.612527 0.050494
0.307568 -0.620215 0.0511277
0.31001 -0.626916 0.0516801
0.311743 -0.632217 0.0521171
0.313495 -0.637585 0.0525597
0.316768 -0.646089 0.0532607
0.322654 -0.659986 0.0544062
0.328359 -0.673593 0.0555279
0.330427 -0.679794 0.0560391
0.330519 -0.681955 0.0562173
0.330182 -0.68324 0.0563232
0.330185 -0.685239 0.056488
0.328557 -0.683854 0.0563738
0.328075 -0.684855 0.0564563
0.326418 -0.6834 0.0563364
0.325665 -0.683836 0.0563724
0.324971 -0.684398 0.0564187
0.325436 -0.687411 0.056667
0.324279 -0.687007 0.0566337
0.322978 -0.686294 0.056575
0.321394 -0.684974 0.0564661
0.321428 -0.687104 0.0566417
0.32149 -0.689308 0.0568234
0.321307 -0.690997 0.0569627
0.320485 -0.691319 0.0569892
0.318769 -0.689707 0.0568563
0.318029 -0.690204 0.0568973
0.317229 -0.690573 0.0569277
0.316244 -0.690542 0.0569252
0.314606 -0.689081 0.0568047
0.312906 -0.687472 0.0566721
0.312113 -0.687854 0.0567036
0.311342 -0.688286 0.0567392
0.310633 -0.688858 0.0567863
0.309608 -0.688733 0.056776
0.308533 -0.688492 0.0567562
0.308056 -0.689591 0.0568468
0.306822 -0.688996 0.0567977
0.306136 -0.689631 0.05685
0.304895 -0.689016 0.0567994
0.30373 -0.68857 0.0567626
0.302692 -0.688411 0.0567495
0.301479 -0.687851 0.0567033
0.300558 -0.687956 0.0567119
0.299309 -0.687305 0.0566583
0.298854 -0.688484 0.0567555
0.297938 -0.688603 0.0567653
0.2973 -0.689368 0.0568284
0.29601 -0.68862 0.0567667
0.294974 -0.688459 0.0567535
0.293899 -0.688208 0.0567327
0.293011 -0.688393 0.056748
0.291959 -0.688195 0.0567316
0.290383 -0.686754 0.0566129
0.288961 -0.68567 0.0565236
0.287558 -0.684623 0.0564372
0.286625 -0.684693 0.056443
0.285859 -0.685162 0.0564817
0.285293 -0.686117 0.0565604
0.284472 -0.686463 0.0565889
0.283453 -0.686331 0.056578
0.282006 -0.685159 0.0564814
0.280645 -0.684187 0.0564013
0.279069 -0.682684 0.0562774
0.278248 -0.683024 0.0563054
0.277307 -0.683071 0.0563093
0.27654 -0.683548 0.0563486
0.275707 -0.683863 0.0563746
0.275089 -0.684716 0.0564449
0.273688 -0.683621 0.0563546
0.27235 -0.682674 0.0562766
0.271267 -0.682365 0.056251
0.270486 -0.682813 0.056288
0.269613 -0.683031 0.056306
0.268729 -0.683224 0.0563219
0.267698 -0.683043 0.0563069
0.266455 -0.682319 0.0562473
0.265402 -0.682077 0.0562273
0.264363 -0.681868 0.0562101
0.26359 -0.682348 0.0562497
0.263003 -0.683316 0.0563294
0.262127 -0.683534 0.0563474
0.261297 -0.683877 0.0563757
0.260246 -0.683638 0.0563561
0.259417 -0.683988 0.0563848
0.258004 -0.682791 0.0562862
0.256713 -0.681911 0.0562137
0.255464 -0.681134 0.0561496
0.25395 -0.679646 0.0560269
0.251684 -0.676122 0.0557365
0.249623 -0.673127 0.0554895
0.247659 -0.670373 0.0552625
0.245664 -0.667511 0.0550266
0.244157 -0.665958 0.0548985
0.242776 -0.664739 0.0547981
0.242107 -0.665467 0.0548581
0.240933 -0.664809 0.0548038
0.24039 -0.665892 0.0548931
0.239497 -0.666012 0.054903
0.23893 -0.667042 0.0549879
0.238063 -0.667237 0.055004
0.237226 -0.667522 0.0550275
0.235937 -0.66653 0.0549457
0.234398 -0.664823 0.054805
0.233298 -0.66435 0.054766
0.232605 -0.665038 0.0548227
0.231728 -0.665204 0.0548364
0.230368 -0.663976 0.0547352
0.229428 -0.663956 0.0547336
0.228852 -0.664995 0.0548192
0.228094 -0.665509 0.0548616
0.226932 -0.664846 0.0548069
0.225841 -0.664385 0.0547688
0.224837 -0.664175 0.0547516
0.223762 -0.663756 0.054717
0.22271 -0.663399 0.0546876
0.221674 -0.66309 0.0546621
0.220127 -0.661241 0.0545097
0.218764 -0.659934 0.0544019
0.217691 -0.659491 0.0543655
0.217202 -0.660824 0.0544754
0.216837 -0.662545 0.0546172
0.215775 -0.662143 0.054584
0.214594 -0.66137 0.0545204
0.213606 -0.661191 0.0545056
0.213218 -0.662873 0.0546443
0.21265 -0.664006 0.0547376
0.211915 -0.664628 0.0547889
0.21085 -0.664215 0.0547548
0.20983 -0.663941 0.0547323
0.208396 -0.662349 0.054601
0.207091 -0.661156 0.0545027
0.206025 -0.660716 0.0544665
0.205519 -0.662075 0.0545784
0.204867 -0.662976 0.0546527
0.204015 -0.663235 0.0546741
0.20257 -0.661561 0.0545361
0.201348 -0.660603 0.0544571
0.200411 -0.660573 0.0544546
0.199716 -0.661344 0.0545182
0.198946 -0.661875 0.054562
0.197723 -0.660895 0.0544812
0.196666 -0.660466 0.0544458
0.195355 -0.659173 0.0543392
0.194756 -0.660284 0.0544308
0.193744 -0.659996 0.0544071
0.193129 -0.661066 0.0544952
0.192124 -0.660802 0.0544736
0.191243 -0.660969 0.0544873
0.190456 -0.661461 0.0545279
0.189462 -0.661235 0.0545092
0.188324 -0.660503 0.0544489
0.187023 -0.659191 0.0543407
0.18629 -0.659873 0.0543969
0.185409 -0.660039 0.0544106
0.184446 -0.659911 0.0544001
0.183948 -0.661455 0.0545273
0.183213 -0.662159 0.0545854
0.182325 -0.662315 0.0545982
0.181297 -0.661958 0.0545688
0.180363 -0.661943 0.0545676
0.179521 -0.662268 0.0545944
0.178483 -0.661869 0.0545615
0.177573 -0.661947 0.0545679
0.176612 -0.661829 0.0545582
0.175666 -0.661769 0.0545533
0.174886 -0.662337 0.0546
0.173879 -0.662047 0.0545762
0.172698 -0.661087 0.054497
0.171636 -0.660575 0.0544548
0.170427 -0.659491 0.0543655
0.169783 -0.660591 0.0544561
0.168714 -0.66004 0.0544107
0.167892 -0.660453 0.0544447
0.166732 -0.659538 0.0543693
0.165878 -0.659827 0.0543931
0.16493 -0.659741 0.0543861
0.163857 -0.659155 0.0543378
0.162846 -0.658815 0.0543097
0.162001 -0.659144 0.0543368
0.161424 -0.660572 0.0544545
0.16048 -0.660505 0.0544491
0.159457 -0.660112 0.0544167
0.15841 -0.659617 0.0543758
0.157586 -0.660047 0.0544113
0.156532 -0.659517 0.0543676
0.155523 -0.659165 0.0543386
0.154509 -0.658794 0.054308
0.153419 -0.658087 0.0542497
0.152489 -0.658065 0.0542479
0.151702 -0.658663 0.0542972
0.150801 -0.658771 0.0543061
0.149857 -0.658688 0.0542993
0.149288 -0.660269 0.0544296
0.148467 -0.660744 0.0544687
0.147362 -0.659954 0.0544036
0.146549 -0.660468 0.054446
0.145737 -0.660994 0.0544893
0.144783 -0.660881 0.05448
0.143679 -0.660073 0.0544134
0.142801 -0.660303 0.0544324
0.142102 -0.661369 0.0545202
0.14107 -0.660888 0.0544806
0.139923 -0.659859 0.0543958
0.13912 -0.660448 0.0544443
0.138518 -0.662008 0.054573
0.13774 -0.662737 0.0546331
0.136813 -0.662762 0.0546351
0.135703 -0.661888 0.0545631
0.134923 -0.662628 0.0546241
0.134045 -0.662887 0.0546454
0.13299 -0.662273 0.0545948
0.131946 -0.661703 0.0545478
0.13084 -0.660815 0.0544746
0.129898 -0.660747 0.054469
0.128772 -0.659737 0.0543857
0.127826 -0.659637 0.0543775
0.126656 -0.658373 0.0542733
0.125756 -0.658504 0.0542841
0.124949 -0.659132 0.0543359
0.124085 -0.659463 0.0543631
0.123053 -0.6589 0.0543167
0.122166 -0.659105 0.0543336
0.121399 -0.659974 0.0544053
0.12071 -0.661277 0.0545127
0.119686 -0.660757 0.0544698
0.118812 -0.661059 0.0544947
0.117717 -0.660126 0.0544178
0.116788 -0.660118 0.0544172
0.115625 -0.65878 0.0543068
0.114741 -0.659019 0.0543266
0.113712 -0.65842 0.0542771
0.112771 -0.65833 0.0542697
0.112117 -0.659924 0.0544011
0.11118 -0.659868 0.0543966
0.110188 -0.659482 0.0543647
0.108974 -0.657748 0.0542217
0.108114 -0.658139 0.054254
0.10706 -0.657347 0.0541887
0.105992 -0.656452 0.0541149
0.104919 -0.655514 0.0540376
0.103998 -0.655509 0.0540372
0.103202 -0.656306 0.0541029
0.102124 -0.65531 0.0540208
0.101022 -0.654134 0.0539238
0.100044 -0.653754 0.0538925
0.0992099 -0.65431 0.0539383
0.0982945 -0.654336 0.0539405
0.0975372 -0.655426 0.0540304
0.0965929 -0.655268 0.0540173
0.0958153 -0.656249 0.0540982
0.0949714 -0.656791 0.0541428
0.0937887 -0.654977 0.0539933
0.0929091 -0.655264 0.054017
0.0921185 -0.656192 0.0540935
0.09137 -0.657441 0.0541964
0.0903004 -0.656382 0.0541091
0.0892884 -0.655723 0.0540548
0.0882343 -0.654739 0.0539737
0.0875596 -0.656579 0.0541254
0.0867808 -0.657668 0.0542152
0.0857627 -0.656949 0.0541559
0.0846632 -0.655583 0.0540433
0.0838391 -0.656344 0.0541061
0.083029 -0.657232 0.0541793
0.0821791 -0.657822 0.0542279
0.0808809 -0.654796 0.0539784
0.0795567 -0.651487 0.0537056
0.0784359 -0.649786 0.0535654
0.0778175 -0.652256 0.053769
0.0770276 -0.65333 0.0538576
0.0762144 -0.654231 0.0539318
0.0752989 -0.654264 0.0539345
0.0744354 -0.654756 0.0539751
0.0737741 -0.657061 0.0541651
0.0729217 -0.6577 0.0542178
0.0719317 -0.657099 0.0541683
0.070866 -0.655782 0.0540597
0.0695361 -0.651953 0.0537441
0.0682923 -0.648841 0.0534875
0.0671575 -0.646692 0.0533104
0.0663767 -0.647942 0.0534134
0.0652637 -0.645937 0.0532481
0 -0 0
0 -0 0
0 -0 0
0 -0 0
0 -0 0
0 -0 0
0 -0 0
0 -0 0
0 -0 0
0 -0 0
0 -0 0
0 -0 0
0 -0 0
0 -0 0
0 -0 0
0 -0 0
0 -0 0
0 -0 0
0 -0 0
0 -0 0
0 -0 0
0 -0 0
0 -0 0
0 -0 0
0 -0 0
0 -0 0
0 -0 0
0.0528452 -0.856613 0.0706153
0 -0 0
0 -0 0
0 -0 0
0 -0 0
0 -0 0
0 -0 0
0 -0 0
0 -0 0
0 -0 0
0 -0 0
0 -0 0
0 -0 0
0 -0 0
0 -0 0
0 -0 0
0 -0 0
0 -0 0
0 -0 0
0 -0 0
0 -0 0
0 -0 0
0 -0 0
0 -0 0
0 -0 0
0 -0 0
0 -0 0
0 -0 0
0 -0 0
0 -0 0
0 -0 0
0 -0 0
0 -0 0
0 -0 0
0 -0 0
0 -0 0
0 -0 0
0 -0 0
0 -0 0
0 -0 0
0 -0 0
0 -0 0
0 -0 0
0 -0 0
-0 -0 0
-0 -0 0
0 -0 0
0.366066 -0.511894 0.0414782
0.366536 -0.51356 0.0416132
0.369035 -0.518082 0.0419796
0.366492 -0.515528 0.0417727
0.3653 -0.514869 0.0417193
0.368926 -0.521012 0.042217
0.370088 -0.523692 0.0424341
0.370734 -0.525651 0.042593
0.373978 -0.531309 0.0430514
0.374627 -0.533296 0.0432124
0 -0 0
0 -0 0
0.311645 -0.446317 0.0361646
0.307516 -0.441292 0.0357574
0.304987 -0.438548 0.035535
0.304231 -0.438346 0.0355187
0.307146 -0.443443 0.0359317
0.304367 -0.440325 0.035679
0.302905 -0.439103 0.03558
0.303161 -0.440371 0.0356828
0.302448 -0.440234 0.0356717
0.300802 -0.438735 0.0355502
0.299717 -0.43805 0.0354947
0.301021 -0.440863 0.0357226
0.302523 -0.443975 0.0359748
0.303965 -0.447013 0.036221
0.302899 -0.446368 0.0361687
0 -0 0
0 -0 0
0 -0 0
0.396771 -0.589587 0.0477736
0.3933 -0.585653 0.0474548
0.39327 -0.586836 0.0475506
0.396385 -0.592726 0.0480279
0.397382 -0.595469 0.0482502
0.397277 -0.596567 0.0483391
0.396868 -0.597214 0.0483916
0.397423 -0.599316 0.0485619
0.398751 -0.602596 0.0488277
0.398893 -0.604093 0.048949
0.399924 -0.606947 0.0491802
0.400165 -0.60861 0.049315
0.400752 -0.610807 0.049493
0.400687 -0.612019 0.0495912
0.401956 -0.615279 0.0498553
0.402972 -0.618164 0.0500891
0.402597 -0.618922 0.0501506
0.403178 -0.621157 0.0503316
0.403807 -0.623476 0.0505196
0.404906 -0.626532 0.0507672
0.407093 -0.631289 0.0511527
0.408452 -0.63478 0.0514355
0.408832 -0.636761 0.051596
0.408783 -0.638081 0.051703
0.409507 -0.640617 0.0519085
0.409463 -0.641959 0.0520172
0.406769 -0.639144 0.0517891
0.400078 -0.630021 0.0510499
0.390622 -0.616495 0.0499539
0.385934 -0.610449 0.049464
0 -0 0
0.358081 -0.568923 0.0460992
0.355275 -0.565727 0.0458402
0.353544 -0.564233 0.0457192
0.352104 -0.563198 0.0456353
0.352259 -0.564715 0.0457583
0.354455 -0.569519 0.0461475
0.364728 -0.587352 0.0475925
0.371904 -0.600265 0.0486388
0.375887 -0.608074 0.0492716
0.375975 -0.609602 0.0493954
0.374654 -0.608848 0.0493342
0.372974 -0.607504 0.0492254
0.372416 -0.607986 0.0492645
0.372183 -0.609003 0.0493469
0.370878 -0.608267 0.0492872
0.369723 -0.607773 0.0492472
0.367692 -0.605834 0.0490901
0.367115 -0.606287 0.0491268
0.366036 -0.605911 0.0490963
0.365345 -0.606177 0.0491178
0.364306 -0.605867 0.0490927
0.363483 -0.605914 0.0490965
0.362706 -0.606038 0.0491066
0.361232 -0.604995 0.0490221
0.360977 -0.605994 0.049103
0.359924 -0.605655 0.0490755
0.360589 -0.608213 0.0492828
0 -0 0
0.257245 -0.435968 0.035326
0.256899 -0.436421 0.0353627
0.255977 -0.435895 0.0353201
0.255071 -0.435394 0.0352795
0.254122 -0.434817 0.0352327
0.253885 -0.435458 0.0352847
0.253665 -0.436131 0.0353392
0.253991 -0.437749 0.0354703
0.254146 -0.439081 0.0355783
0.254493 -0.44075 0.0357135
0.253786 -0.440599 0.0357012
0.25307 -0.440429 0.0356874
0.25198 -0.439607 0.0356208
0.251137 -0.439214 0.035589
0.250744 -0.439606 0.0356208
0.250353 -0.440004 0.0356531
0.249576 -0.439726 0.0356305
0.247427 -0.437022 0.0354114
0.24425 -0.432483 0.0350436
0.241297 -0.428319 0.0347062
0.239178 -0.425621 0.0344876
0.238435 -0.425361 0.0344666
0.237785 -0.425268 0.034459
0.237397 -0.425644 0.0344894
0.236902 -0.42583 0.0345045
0.236854 -0.426822 0.0345849
0.236971 -0.428116 0.0346898
0.238105 -0.431261 0.0349446
0 -0 0
0 -0 0
0 -0 0
0.327756 -0.599744 0.0485966
0.325954 -0.597984 0.0484539
0.324594 -0.597028 0.0483765
0.323839 -0.597181 0.0483889
0.323272 -0.597685 0.0484297
0.322068 -0.59701 0.048375
0.319803 -0.59436 0.0481603
0 -0 0
0 -0 0
0.255175 -0.477993 0.0387312
0.254003 -0.477053 0.038655
0.253818 -0.477968 0.0387292
0.253083 -0.477848 0.0387195
0 -0 0
0 -0 0
0.313128 -0.595962 0.0482901
0.31155 -0.594548 0.0481756
0.30958 -0.592379 0.0479998
0 -0 0
0.240724 -0.463114 0.0375256
0.239944 -0.462865 0.0375054
0 -0 0
0.288547 -0.559656 0.0453483
0.289287 -0.562625 0.0455888
0.2902 -0.565947 0.045858
0.297175 -0.581142 0.0470893
0.305285 -0.598646 0.0485076
0.303299 -0.596396 0.0483253
0.301503 -0.594507 0.0481722
0.300083 -0.593351 0.0480785
0.299824 -0.59449 0.0481709
0.299213 -0.594937 0.0482071
0.299106 -0.59639 0.0483248
0.299354 -0.598563 0.0485009
0.301016 -0.603581 0.0489075
0.30461 -0.612515 0.0496314
0.307299 -0.619672 0.0502114
0.309152 -0.62518 0.0506576
0.310449 -0.629593 0.0510152
0.313146 -0.636876 0.0516054
0.316544 -0.645633 0.0523149
0.323661 -0.662047 0.0536449
0.327303 -0.671426 0.0544049
0.327421 -0.673609 0.0545818
0.327769 -0.676282 0.0547984
0.327348 -0.677375 0.054887
0.327965 -0.680631 0.0551508
0.326477 -0.679525 0.0550612
0.325808 -0.680124 0.0551096
0.32459 -0.679574 0.0550651
0.323657 -0.679619 0.0550687
0.323336 -0.680954 0.055177
0.323057 -0.682386 0.055293
0.322585 -0.683418 0.0553766
0.321436 -0.683018 0.0553442
0.320567 -0.683211 0.0553598
0.320217 -0.684515 0.0554655
0.319763 -0.685604 0.0555537
0.319341 -0.686769 0.0556481
0.318004 -0.685967 0.0555831
0.316576 -0.684962 0.0555017
0.315941 -0.685673 0.0555593
0.315631 -0.687096 0.0556746
0.314717 -0.687207 0.0556836
0.313093 -0.685766 0.0555668
0.311185 -0.683692 0.0553988
0.30989 -0.682955 0.0553391
0.308623 -0.682275 0.055284
0.307938 -0.682883 0.0553333
0.307262 -0.683514 0.0553844
0.307286 -0.68571 0.0555623
0.306387 -0.685855 0.0555741
0.305575 -0.686195 0.0556016
0.304414 -0.685752 0.0555658
0.303493 -0.685849 0.0555735
0.302527 -0.685843 0.0555731
0.301334 -0.685323 0.055531
0.300061 -0.684616 0.0554737
0.298681 -0.683659 0.0553961
0.297962 -0.684214 0.0554411
0.297492 -0.685346 0.0555328
0.296962 -0.686345 0.0556138
0.296035 -0.686433 0.0556209
0.29475 -0.685689 0.0555606
0.293502 -0.685024 0.0555067
0.292579 -0.685117 0.0555143
0.291847 -0.68566 0.0555583
0.290655 -0.68512 0.0555145
0.289063 -0.683632 0.0553939
0.287498 -0.682199 0.0552778
0.28633 -0.681699 0.0552373
0.285259 -0.681431 0.0552156
0.284416 -0.681703 0.0552376
0.283749 -0.682405 0.0552945
0.282948 -0.682784 0.0553252
0.282085 -0.683017 0.0553441
0.280596 -0.681733 0.05524
0.279453 -0.681281 0.0552034
0.277641 -0.679192 0.0550342
0.276954 -0.679847 0.0550873
0.275692 -0.679092 0.055026
0.274927 -0.679559 0.0550639
0.274103 -0.679884 0.0550903
0.273381 -0.680466 0.0551374
0.272279 -0.680103 0.055108
0.270994 -0.679276 0.055041
0.27029 -0.679906 0.055092
0.269537 -0.680418 0.0551335
0.268177 -0.679393 0.0550505
0.266739 -0.678165 0.054951
0.265429 -0.677254 0.0548771
0.264687 -0.677792 0.0549207
0.26401 -0.6785 0.0549781
0.26323 -0.678946 0.0550143
0.262128 -0.678563 0.0549832
0.261462 -0.679311 0.0550438
0.260888 -0.680305 0.0551243
0.260144 -0.680859 0.0551692
0.258878 -0.680046 0.0551034
0.257623 -0.679257 0.0550394
0.256222 -0.678075 0.0549437
0.255214 -0.677927 0.0549317
0.254085 -0.677457 0.0548936
0.252733 -0.676387 0.0548069
0.251051 -0.674422 0.0546477
0.24846 -0.669991 0.0542887
0.246512 -0.667266 0.0540678
0.244134 -0.663354 0.0537509
0.24252 -0.661493 0.0536001
0.24117 -0.660342 0.0535068
0.240407 -0.660796 0.0535435
0.239281 -0.660252 0.0534995
0.238663 -0.661109 0.0535689
0.2378 -0.661292 0.0535838
0.237106 -0.661949 0.053637
0.235985 -0.661416 0.0535938
0.235055 -0.661412 0.0535935
0.23385 -0.660634 0.0535304
0.23239 -0.659126 0.0534083
0.23122 -0.658432 0.053352
0.230322 -0.658511 0.0533584
0.229427 -0.658597 0.0533654
0.22841 -0.658332 0.0533439
0.227592 -0.658642 0.0533691
0.227007 -0.659632 0.0534492
0.226098 -0.659686 0.0534536
0.225148 -0.659617 0.053448
0.224304 -0.659861 0.0534678
0.223224 -0.659409 0.0534312
0.221882 -0.658179 0.0533315
0.220663 -0.657303 0.0532606
0.219507 -0.656607 0.0532042
0.218621 -0.656719 0.0532132
0.217361 -0.6557 0.0531306
0.216158 -0.654846 0.0530614
0.215483 -0.655593 0.053122
0.214781 -0.656264 0.0531764
0.214055 -0.656865 0.053225
0.212831 -0.655938 0.0531499
0.212091 -0.656501 0.0531956
0.211563 -0.657726 0.0532948
0.211059 -0.659039 0.0534012
0.210179 -0.659183 0.0534129
0.209361 -0.659524 0.0534405
0.207832 -0.657618 0.0532861
0.206555 -0.656499 0.0531954
0.205184 -0.655066 0.0530793
0.204426 -0.655587 0.0531215
0.203938 -0.656982 0.0532345
0.203246 -0.657732 0.0532953
0.202082 -0.656951 0.053232
0.200657 -0.655312 0.0530992
0.199549 -0.654701 0.0530497
0.198943 -0.655735 0.0531335
0.197894 -0.655312 0.0530992
0.196992 -0.655373 0.0531042
0.195619 -0.653862 0.0529817
0.194925 -0.654617 0.0530429
0.19377 -0.653824 0.0529786
0.193298 -0.655339 0.0531014
0.192384 -0.655363 0.0531033
0.191551 -0.655664 0.0531277
0.190597 -0.655552 0.0531186
0.189861 -0.656191 0.0531704
0.189092 -0.656724 0.0532136
0.187966 -0.656014 0.053156
0.187051 -0.656038 0.053158
0.185788 -0.654836 0.0530606
0.185176 -0.655928 0.0531491
0.184064 -0.655252 0.0530944
0.183078 -0.655019 0.0530754
0.182391 -0.655858 0.0531434
0.181661 -0.65655 0.0531995
0.180881 -0.657068 0.0532415
0.179733 -0.656247 0.0531749
0.178649 -0.655652 0.0531268
0.177277 -0.653991 0.0529921
0.176438 -0.654289 0.0530163
0.175651 -0.654782 0.0530562
0.175014 -0.655842 0.0531421
0.174126 -0.655968 0.0531524
0.17328 -0.656255 0.0531756
0.172501 -0.656803 0.05322
0.171192 -0.655322 0.0531
0.170192 -0.65502 0.0530755
0.169012 -0.654015 0.0529941
0.168477 -0.65551 0.0531152
0.167421 -0.654982 0.0530725
0.166509 -0.655012 0.0530749
0.165347 -0.65406 0.0529977
0.16457 -0.654624 0.0530435
0.163552 -0.654232 0.0530117
0.162614 -0.654158 0.0530057
0.161325 -0.652659 0.0528843
0.160334 -0.652359 0.0528599
0.159679 -0.653432 0.0529469
0.159008 -0.654449 0.0530292
0.158182 -0.654834 0.0530605
0.157222 -0.654669 0.0530471
0.15636 -0.654913 0.0530669
0.15518 -0.653818 0.0529782
0.154293 -0.653954 0.0529892
0.153385 -0.654001 0.0529929
0.152491 -0.654108 0.0530016
0.151633 -0.654369 0.0530228
0.150701 -0.654315 0.0530184
0.149594 -0.653496 0.052952
0.148664 -0.653448 0.0529482
0.147818 -0.653766 0.0529739
0.147102 -0.654668 0.053047
0.146153 -0.65454 0.0530366
0.145358 -0.655101 0.0530821
0.144608 -0.655874 0.0531447
0.143713 -0.655996 0.0531546
0.142779 -0.655939 0.05315
0.142095 -0.657038 0.0532391
0.141038 -0.656418 0.0531888
0.140038 -0.656053 0.0531593
0.138988 -0.655448 0.0531102
0.138185 -0.656011 0.0531558
0.137296 -0.656166 0.0531684
0.136316 -0.655888 0.0531459
0.135373 -0.655786 0.0531376
0.134437 -0.655715 0.0531318
0.133833 -0.657275 0.0532582
0.133021 -0.657822 0.0533026
0.132066 -0.657673 0.0532905
0.131105 -0.657486 0.0532754
0.130103 -0.657095 0.0532437
0.1291 -0.656689 0.0532108
0.127863 -0.655077 0.0530802
0.126809 -0.65439 0.0530245
0.125839 -0.654127 0.0530032
0.125103 -0.655088 0.053081
0.124228 -0.655327 0.0531004
0.123228 -0.654908 0.0530664
0.122193 -0.65429 0.0530164
0.121309 -0.654482 0.053032
0.120562 -0.655423 0.0531082
0.119809 -0.65634 0.0531825
0.118995 -0.656939 0.053231
0.118044 -0.656785 0.0532186
0.116988 -0.656038 0.053158
0.115924 -0.655237 0.0530931
0.114925 -0.654792 0.0530571
0.113958 -0.654523 0.0530353
0.112928 -0.653885 0.0529835
0.112106 -0.65445 0.0530294
0.111501 -0.656299 0.0531791
0.110529 -0.656003 0.0531552
0.109542 -0.655615 0.0531237
0.108392 -0.654236 0.053012
0.107309 -0.653235 0.0529309
0.106208 -0.652117 0.0528403
0.105047 -0.650599 0.0527173
0.10419 -0.650958 0.0527464
0.10341 -0.651806 0.0528151
0.102467 -0.651633 0.0528011
0.101291 -0.649963 0.0526658
0.100273 -0.649287 0.052611
0.0993073 -0.648938 0.0525827
0.0983643 -0.648733 0.0525661
0.0976154 -0.649815 0.0526538
0.0966977 -0.649785 0.0526514
0.0959447 -0.650871 0.0527394
0.0951517 -0.651704 0.0528069
0.0943374 -0.652406 0.0528637
0.0932337 -0.651101 0.052758
0.0923442 -0.65128 0.0527725
0.0914219 -0.651229 0.0527684
0.0907359 -0.652878 0.052902
0.0898842 -0.653356 0.0529407
0.088882 -0.652739 0.0528907
0.0877865 -0.651416 0.0527835
0.0868347 -0.651143 0.0527614
0.0860502 -0.652132 0.0528415
0.0851924 -0.652581 0.0528779
0.0839901 -0.650372 0.0526989
0.0831207 -0.65072 0.0527271
0.0824861 -0.652935 0.0529066
0.0816147 -0.653304 0.0529365
0.0802671 -0.649826 0.0526547
0.0788638 -0.645813 0.0523295
0.0779099 -0.645429 0.0522984
0.0773504 -0.648341 0.0525344
0.0763817 -0.647852 0.0524948
0.0756784 -0.649629 0.0526387
0.0748914 -0.650724 0.0527274
0.0741231 -0.652009 0.0528316
0.0733242 -0.653054 0.0529162
0.0725521 -0.654366 0.0530226
0.071435 -0.652562 0.0528764
0.0703562 -0.651064 0.052755
0.069073 -0.647611 0.0524752
0.0677669 -0.643848 0.0521703
0.066721 -0.64249 0.0520602
0.0660749 -0.644995 0.0522633
0.0655712 -0.648981 0.0525862
0 -0 0
0 -0 0
0 -0 0
0 -0 0
0 -0 0
0 -0 0
0 -0 0
0 -0 0
0 -0 0
0 -0 0
0 -0 0
0 -0 0
0 -0 0
0 -0 0
0 -0 0
0 -0 0
0 -0 0
0 -0 0
0 -0 0
0 -0 0
0 -0 0
0 -0 0
0 -0 0
0 -0 0
0 -0 0
0 -0 0
0 -0 0
0 -0 0
0 -0 0
0 -0 0
0 -0 0
0 -0 0
0 -0 0
0 -0 0
0 -0 0
0 -0 0
0 -0 0
0 -0 0
0 -0 0
0 -0 0
0 -0 0
0 -0 0
0 -0 0
0 -0 0
0 -0 0
0 -0 0
0 -0 0
0 -0 0
0 -0 0
0 -0 0
0 -0 0
0 -0 0
0 -0 0
0 -0 0
0 -0 0
0 -0 0
0 -0 0
0 -0 0
0 -0 0
0 -0 0
0 -0 0
0 -0 0
0 -0 0
0 -0 0
0 -0 0
0 -0 0
0 -0 0
0 -0 0
0 -0 0
0 -0 0
0 -0 0
-0 -0 0
-0 -0 0
0 -0 0
0.365957 -0.511741 0.040746
0.368877 -0.516839 0.0411519
0.370039 -0.519491 0.0413631
0.371031 -0.521913 0.0415559
0.36832 -0.519126 0.041334
0.368867 -0.520929 0.0414775
0.370145 -0.523774 0.0417041
0.372043 -0.527508 0.0420014
0.373776 -0.531023 0.0422813
0.372078 -0.529668 0.0421734
0.368161 -0.525142 0.041813
0 -0 0
0.314977 -0.45109 0.0359168
0.308869 -0.443233 0.0352913
0.306171 -0.440249 0.0350537
0.304488 -0.438717 0.0349316
0.304076 -0.439012 0.0349551
0.303283 -0.438757 0.0349348
0.302014 -0.437811 0.0348595
0.302015 -0.438706 0.0349308
0.303203 -0.441333 0.0351399
0.301536 -0.439805 0.0350183
0.299116 -0.437173 0.0348087
0.30157 -0.441666 0.0351665
0.304869 -0.447419 0.0356245
0.305932 -0.449906 0.0358225
0.304266 -0.448383 0.0357013
0 -0 0
0.395741 -0.58561 0.0466276
0.396686 -0.588232 0.0468364
0.394771 -0.586615 0.0467076
0.393601 -0.5861 0.0466666
0.394291 -0.58836 0.0468465
0.395335 -0.591156 0.0470692
0.39558 -0.592768 0.0471976
0.395617 -0.594074 0.0473016
0.396237 -0.596263 0.0474759
0.397725 -0.599771 0.0477551
0.398286 -0.601893 0.0479241
0.399163 -0.604501 0.0481318
0.399019 -0.605573 0.0482171
0.400246 -0.608733 0.0484687
0.40086 -0.610973 0.0486471
0.401497 -0.613257 0.0488289
0.401387 -0.614407 0.0489205
0.40204 -0.616733 0.0491057
0.403109 -0.619709 0.0493427
0.403722 -0.621995 0.0495247
0.404776 -0.624972 0.0497617
0.405317 -0.627168 0.0499366
0.406718 -0.630707 0.0502184
0.407906 -0.633931 0.050475
0.408503 -0.636248 0.0506595
0.409002 -0.638423 0.0508327
0.409977 -0.641352 0.0510659
0.409286 -0.641682 0.0510922
0.408233 -0.641444 0.0510732
0.404081 -0.636325 0.0506657
0.394589 -0.622755 0.0495852
0.389312 -0.615792 0.0490308
0 -0 0
0.358272 -0.569226 0.0453231
0.35534 -0.56583 0.0450527
0.354225 -0.565319 0.045012
0.352043 -0.5631 0.0448353
0.352041 -0.564366 0.0449361
0.35645 -0.572725 0.0456017
0.364147 -0.586416 0.0466918
0.372364 -0.601007 0.0478536
0.376157 -0.60851 0.048451
0.376292 -0.610115 0.0485788
0.374995 -0.609402 0.048522
0.374143 -0.609407 0.0485224
0.373402 -0.609597 0.0485375
0.372507 -0.609534 0.0485325
0.370639 -0.607874 0.0484004
0.369768 -0.607847 0.0483982
0.368363 -0.60694 0.0483259
0.368035 -0.607807 0.048395
0.367476 -0.608295 0.0484338
0.366877 -0.60872 0.0484677
0.365343 -0.60759 0.0483777
0.364563 -0.607713 0.0483875
0.363299 -0.607029 0.0483331
0.361597 -0.605607 0.0482198
0.360518 -0.605224 0.0481893
0.360118 -0.605983 0.0482497
0 -0 0
0 -0 0
0.257338 -0.436125 0.0347253
0.257016 -0.436618 0.0347645
0.256052 -0.436022 0.034717
0.254571 -0.43454 0.034599
0.253529 -0.433802 0.0345403
0.253283 -0.434426 0.03459
0.253449 -0.43576 0.0346962
0.253694 -0.437239 0.034814
0.254056 -0.438925 0.0349482
0.254466 -0.440703 0.0350898
0.254105 -0.441151 0.0351255
0.253277 -0.440789 0.0350966
0.252311 -0.440184 0.0350485
0.251474 -0.439802 0.0350181
0.251095 -0.440222 0.0350515
0.25085 -0.440878 0.0351037
0.249785 -0.440093 0.0350412
0.247624 -0.437369 0.0348243
0.244781 -0.433424 0.0345102
0.242295 -0.430092 0.0342449
0.240152 -0.427354 0.0340269
0.23905 -0.426459 0.0339556
0.238153 -0.425927 0.0339133
0.237749 -0.426275 0.033941
0.237526 -0.426952 0.0339949
0.237631 -0.428222 0.034096
0.238002 -0.429979 0.0342359
0.238873 -0.43265 0.0344486
0.242432 -0.440217 0.0350511
0 -0 0
0 -0 0
0.328087 -0.600349 0.0478012
0.326699 -0.599351 0.0477217
0.325625 -0.598923 0.0476877
0.325171 -0.599639 0.0477446
0.324181 -0.599365 0.0477228
0.322829 -0.598421 0.0476477
0.320242 -0.595177 0.0473893
0.317313 -0.591277 0.0470788
0 -0 0
0.255199 -0.478038 0.0380625
0.254253 -0.477522 0.0380214
0.254496 -0.479243 0.0381584
0 -0 0
0 -0 0
0.314499 -0.596974 0.0475325
0.313731 -0.597111 0.0475433
0.31231 -0.595999 0.0474548
0.310592 -0.594315 0.0473207
0 -0 0
0 -0 0
0 -0 0
0 -0 0
0.289181 -0.560885 0.044659
0.289453 -0.562948 0.0448232
0.290238 -0.566021 0.0450679
0.299744 -0.586166 0.0466719
0.305445 -0.598961 0.0476906
0.303278 -0.596354 0.0474831
0.301622 -0.594742 0.0473547
0.300246 -0.593673 0.0472696
0.299995 -0.59483 0.0473617
0.299381 -0.595272 0.0473969
0.299297 -0.596771 0.0475163
0.299547 -0.598949 0.0476897
0.301116 -0.603781 0.0480744
0.304084 -0.611456 0.0486855
0.30716 -0.619392 0.0493174
0.309158 -0.625192 0.0497793
0.310591 -0.62988 0.0501525
0.313202 -0.636991 0.0507187
0.319225 -0.651102 0.0518422
0.324554 -0.663873 0.0528591
0.325966 -0.668683 0.0532421
0.325318 -0.669282 0.0532898
0.325376 -0.671343 0.0534539
0.324901 -0.672312 0.053531
0.325622 -0.67577 0.0538064
0.32421 -0.674807 0.0537297
0.323471 -0.675244 0.0537645
0.322293 -0.674765 0.0537263
0.321784 -0.675686 0.0537997
0.321494 -0.677075 0.0539103
0.320411 -0.676799 0.0538883
0.319796 -0.677509 0.0539448
0.319454 -0.678805 0.054048
0.31946 -0.680852 0.054211
0.319221 -0.682386 0.0543331
0.318516 -0.68293 0.0543765
0.317008 -0.681752 0.0542827
0.315662 -0.680914 0.0542159
0.314239 -0.679906 0.0541357
0.313782 -0.680987 0.0542218
0.312969 -0.6813 0.0542466
0.31215 -0.681603 0.0542708
0.310631 -0.680372 0.0541728
0.309103 -0.679118 0.0540729
0.308038 -0.678873 0.0540534
0.307216 -0.679164 0.0540766
0.306297 -0.679244 0.054083
0.30536 -0.679282 0.054086
0.304633 -0.67979 0.0541265
0.30426 -0.681094 0.0542303
0.303439 -0.6814 0.0542546
0.302873 -0.68228 0.0543247
0.301927 -0.682309 0.054327
0.301317 -0.683102 0.0543901
0.300204 -0.682753 0.0543624
0.298786 -0.681706 0.054279
0.297638 -0.681272 0.0542444
0.29685 -0.681659 0.0542753
0.296547 -0.683169 0.0543955
0.29571 -0.683454 0.0544182
0.29456 -0.683013 0.0543831
0.293024 -0.681672 0.0542763
0.292144 -0.681855 0.0542909
0.29142 -0.682402 0.0543344
0.290992 -0.683651 0.0544339
0.289805 -0.683118 0.0543914
0.288003 -0.681125 0.0542328
0.286304 -0.679366 0.0540927
0.285 -0.678534 0.0540264
0.284055 -0.678552 0.0540279
0.283289 -0.679003 0.0540638
0.282576 -0.679584 0.05411
0.281778 -0.679962 0.0541401
0.280954 -0.680279 0.0541654
0.279894 -0.680027 0.0541453
0.278789 -0.679664 0.0541164
0.277056 -0.677761 0.0539649
0.276225 -0.678058 0.0539885
0.275096 -0.677624 0.053954
0.273951 -0.677148 0.0539161
0.272782 -0.676608 0.0538731
0.271657 -0.676176 0.0538387
0.271072 -0.677087 0.0539112
0.27012 -0.677085 0.0539111
0.269661 -0.678324 0.0540097
0.268506 -0.677815 0.0539692
0.267309 -0.677195 0.0539198
0.265376 -0.6747 0.0537212
0.264093 -0.673847 0.0536532
0.263319 -0.674289 0.0536884
0.26296 -0.675801 0.0538088
0.26219 -0.676263 0.0538456
0.261168 -0.676078 0.0538309
0.26036 -0.676447 0.0538603
0.259567 -0.676858 0.053893
0.258801 -0.677342 0.0539316
0.257254 -0.675779 0.0538071
0.256007 -0.674995 0.0537447
0.254956 -0.674725 0.0537231
0.254162 -0.675135 0.0537558
0.253281 -0.675315 0.0537701
0.252033 -0.674514 0.0537064
0.250668 -0.673393 0.0536171
0.248224 -0.669355 0.0532956
0.245619 -0.664849 0.0529368
0.243126 -0.660614 0.0525996
0.241361 -0.658331 0.0524178
0.239677 -0.656254 0.0522524
0.238763 -0.656277 0.0522543
0.237633 -0.655704 0.0522086
0.23731 -0.657361 0.0523406
0.236325 -0.65719 0.052327
0.235379 -0.657127 0.052322
0.234067 -0.656039 0.0522353
0.233128 -0.65599 0.0522314
0.231895 -0.65511 0.0521614
0.231026 -0.655258 0.0521731
0.229926 -0.654747 0.0521324
0.228805 -0.654174 0.0520868
0.22782 -0.653985 0.0520718
0.226979 -0.654208 0.0520896
0.226195 -0.654599 0.0521207
0.225257 -0.654548 0.0521166
0.224185 -0.654104 0.0520813
0.223449 -0.654641 0.0521241
0.222745 -0.655275 0.0521745
0.221713 -0.654947 0.0521484
0.220292 -0.653463 0.0520302
0.21892 -0.65211 0.0519225
0.218192 -0.652673 0.0519673
0.217463 -0.653238 0.0520123
0.216291 -0.652471 0.0519513
0.214984 -0.65129 0.0518572
0.214169 -0.651594 0.0518814
0.213505 -0.652364 0.0519427
0.212577 -0.65233 0.05194
0.211368 -0.65143 0.0518683
0.210797 -0.652494 0.0519531
0.210207 -0.653512 0.0520341
0.209436 -0.65397 0.0520706
0.208798 -0.654854 0.052141
0.207543 -0.653798 0.0520569
0.206535 -0.653516 0.0520345
0.205034 -0.651663 0.0518869
0.203891 -0.65094 0.0518293
0.202948 -0.650849 0.0518221
0.202191 -0.651354 0.0518623
0.201565 -0.65229 0.0519368
0.200501 -0.651812 0.0518988
0.199178 -0.650481 0.0517928
0.198177 -0.650196 0.0517701
0.197337 -0.650439 0.0517894
0.196391 -0.650336 0.0517812
0.195463 -0.650288 0.0517774
0.194519 -0.650187 0.0517694
0.193602 -0.650177 0.0517686
0.19249 -0.649507 0.0517152
0.191296 -0.648551 0.0516392
0.190724 -0.649707 0.0517312
0.189729 -0.649429 0.051709
0.189025 -0.650144 0.051766
0.188227 -0.650546 0.051798
0.18759 -0.651506 0.0518744
0.186351 -0.650379 0.0517847
0.185629 -0.65105 0.0518381
0.184563 -0.65052 0.0517959
0.183762 -0.65092 0.0518278
0.182628 -0.650139 0.0517655
0.18171 -0.650122 0.0517642
0.180774 -0.650041 0.0517578
0.180055 -0.650747 0.051814
0.179113 -0.650646 0.0518059
0.178353 -0.651207 0.0518506
0.176987 -0.649552 0.0517189
0.175852 -0.648734 0.0516537
0.174595 -0.647452 0.0515516
0.174287 -0.649697 0.0517304
0.173525 -0.650262 0.0517753
0.17289 -0.651312 0.051859
0.171778 -0.650567 0.0517997
0.170954 -0.650909 0.0518269
0.169666 -0.649482 0.0517133
0.168806 -0.649685 0.0517295
0.168026 -0.650199 0.0517703
0.167725 -0.652581 0.05196
0.166281 -0.650523 0.0517961
0.165417 -0.650718 0.0518116
0.164224 -0.649616 0.0517239
0.163671 -0.651047 0.0518379
0.162753 -0.651033 0.0518368
0.161867 -0.651149 0.051846
0.160569 -0.649603 0.0517229
0.159419 -0.648637 0.051646
0.158444 -0.648378 0.0516254
0.157691 -0.649027 0.0516771
0.157097 -0.650345 0.051782
0.156145 -0.650185 0.0517693
0.155291 -0.650436 0.0517892
0.154173 -0.649576 0.0517207
0.153127 -0.64901 0.0516757
0.152362 -0.649637 0.0517256
0.151544 -0.650043 0.0517579
0.150674 -0.650231 0.0517729
0.149621 -0.649627 0.0517248
0.148709 -0.64963 0.051725
0.147847 -0.649854 0.0517429
0.146918 -0.649787 0.0517376
0.145877 -0.649216 0.0516921
0.145054 -0.649617 0.051724
0.144311 -0.65038 0.0517847
0.143532 -0.650996 0.0518338
0.142748 -0.651589 0.051881
0.141991 -0.65232 0.0519392
0.141222 -0.653003 0.0519936
0.140098 -0.65204 0.0519169
0.138726 -0.649906 0.051747
0.137832 -0.649998 0.0517544
0.137254 -0.651591 0.0518812
0.13639 -0.651835 0.0519006
0.13507 -0.649893 0.051746
0.134236 -0.650276 0.0517765
0.133358 -0.650449 0.0517903
0.13277 -0.652051 0.0519178
0.131857 -0.652069 0.0519192
0.130956 -0.652146 0.0519254
0.130024 -0.652068 0.0519192
0.128968 -0.651359 0.0518627
0.128078 -0.651492 0.0518733
0.126983 -0.650568 0.0517997
0.1261 -0.650731 0.0518127
0.125223 -0.650926 0.0518283
0.124302 -0.650893 0.0518256
0.123401 -0.650964 0.0518313
0.122312 -0.650036 0.0517574
0.12141 -0.650099 0.0517624
0.120395 -0.649554 0.051719
0.11956 -0.649976 0.0517526
0.118779 -0.650698 0.0518101
0.117933 -0.651078 0.0518403
0.116892 -0.650374 0.0517843
0.115757 -0.649137 0.0516858
0.115008 -0.650057 0.051759
0.114057 -0.649847 0.0517423
0.112905 -0.648472 0.0516328
0.111959 -0.648274 0.051617
0.11126 -0.64951 0.0517155
0.110602 -0.651008 0.0518348
0.109823 -0.651816 0.0518991
0.108753 -0.650895 0.0518257
0.107716 -0.650156 0.0517669
0.106704 -0.649554 0.051719
0.105573 -0.648215 0.0516124
0.104565 -0.647615 0.0515646
0.103688 -0.647822 0.0515811
0.102878 -0.64845 0.0516311
0.101873 -0.647857 0.0515838
0.100872 -0.647276 0.0515376
0.0997527 -0.645917 0.0514294
0.0987092 -0.645029 0.0513587
0.0976864 -0.644262 0.0512976
0.0969754 -0.645556 0.0514006
0.0962418 -0.646721 0.0514935
0.0953118 -0.646578 0.051482
0.0942614 -0.645606 0.0514046
0.0936661 -0.647764 0.0515764
0.0927235 -0.647538 0.0515585
0.0918695 -0.647932 0.0515899
0.0909317 -0.647738 0.0515744
0.0901193 -0.648441 0.0516304
0.0894338 -0.650082 0.051761
0.0884803 -0.649788 0.0517376
0.0873307 -0.648033 0.0515979
0.0863964 -0.647856 0.0515838
0.0854161 -0.647326 0.0515416
0.0845586 -0.647726 0.0515734
0.0835072 -0.646632 0.0514864
0.082617 -0.646777 0.0514979
0.0816668 -0.64645 0.0514718
0.0809024 -0.647603 0.0515636
0.0796158 -0.644554 0.0513209
0.0785315 -0.643092 0.0512044
0.0777284 -0.643924 0.0512707
0.0769347 -0.644857 0.051345
0.0760821 -0.645311 0.0513812
0.0748695 -0.642686 0.0511721
0.0744361 -0.646767 0.0514971
0.0735987 -0.647395 0.0515471
0.0726482 -0.647033 0.0515182
0.0717896 -0.647489 0.0515546
0.0708102 -0.646854 0.051504
0.069898 -0.646825 0.0515017
0.0686647 -0.643784 0.0512595
0.0673143 -0.639548 0.0509223
0.0663666 -0.639077 0.0508848
0.0658455 -0.642756 0.0511777
0.0650786 -0.644105 0.0512851
0.0640149 -0.642514 0.0511584
0 -0 0
0 -0 0
0 -0 0
0 -0 0
0 -0 0
0 -0 0
0 -0 0
0 -0 0
0 -0 0
0 -0 0
0 -0 0
0 -0 0
0 -0 0
0 -0 0
0 -0 0
0 -0 0
0 -0 0
0 -0 0
0 -0 0
0 -0 0
0 -0 0
0 -0 0
0 -0 0
0 -0 0
0 -0 0
0 -0 0
0 -0 0
0 -0 0
0 -0 0
0 -0 0
0 -0 0
0 -0 0
0 -0 0
0 -0 0
0 -0 0
0 -0 0
0 -0 0
0 -0 0
0 -0 0
0 -0 0
0 -0 0
0 -0 0
0 -0 0
0 -0 0
0 -0 0
0 -0 0
0 -0 0
0 -0 0
0 -0 0
0 -0 0
0 -0 0
0 -0 0
0 -0 0
0 -0 0
0 -0 0
0 -0 0
0 -0 0
0 -0 0
0 -0 0
0 -0 0
0 -0 0
0 -0 0
0 -0 0
0 -0 0
0 -0 0
0 -0 0
0 -0 0
0 -0 0
0 -0 0
0 -0 0
-0 -0 0
-0 -0 0
0 -0 0
0.366073 -0.511903 0.0400389
0.369225 -0.517327 0.0404631
0.37095 -0.52077 0.0407324
0.370135 -0.520653 0.0407233
0.370383 -0.522034 0.0408313
0.369827 -0.522285 0.0408509
0.37089 -0.524828 0.0410498
0.373162 -0.529094 0.0413834
0.375025 -0.532798 0.0416732
0.372555 -0.530347 0.0414815
0.368379 -0.525453 0.0410987
0 -0 0
0.311389 -0.445951 0.0348804
0.308815 -0.443157 0.0346618
0.307979 -0.442849 0.0346378
0.305222 -0.439774 0.0343973
0.304805 -0.440065 0.03442
0.304488 -0.440501 0.0344541
0.303945 -0.44061 0.0344626
0.303291 -0.44056 0.0344587
0.304776 -0.443622 0.0346982
0.303534 -0.44272 0.0346277
0.299222 -0.437328 0.0342059
0.300437 -0.440007 0.0344155
0.305182 -0.447878 0.0350311
0 -0 0
0 -0 0
0.394815 -0.583027 0.0456019
0.395029 -0.584558 0.0457216
0.3941 -0.584397 0.0457091
0.392614 -0.58341 0.0456318
0.392687 -0.584739 0.0457358
0.393501 -0.58718 0.0459267
0.394202 -0.589463 0.0461052
0.394695 -0.591443 0.0462601
0.394788 -0.59283 0.0463686
0.395041 -0.594464 0.0464965
0.395788 -0.596851 0.0466831
0.397209 -0.600265 0.0469502
0.397893 -0.602579 0.0471311
0.398033 -0.604076 0.0472482
0.399014 -0.606859 0.0474659
0.400958 -0.611122 0.0477994
0.400937 -0.612401 0.0478994
0.400544 -0.613118 0.0479554
0.401859 -0.616456 0.0482165
0.403499 -0.620309 0.048518
0.404676 -0.623465 0.0487648
0.405016 -0.625342 0.0489116
0.405242 -0.627053 0.0490454
0.405813 -0.629304 0.0492215
0.406948 -0.632442 0.0494669
0.408028 -0.635509 0.0497068
0.408632 -0.637846 0.0498896
0.409272 -0.640249 0.0500775
0.409778 -0.642452 0.0502499
0.408549 -0.64194 0.0502098
0.405398 -0.638399 0.0499328
0.398462 -0.628868 0.0491874
0.391083 -0.618594 0.0483838
0 -0 0
0.358628 -0.569792 0.0445667
0.355607 -0.566256 0.0442901
0.353429 -0.56405 0.0441175
0.351997 -0.563027 0.0440375
0.351898 -0.564137 0.0441244
0.357489 -0.574394 0.0449267
0.367055 -0.591099 0.0462332
0.375345 -0.605819 0.0473846
0.37755 -0.610764 0.0477713
0.376875 -0.611061 0.0477946
0.375424 -0.610098 0.0477193
0.374113 -0.609359 0.0476614
0.373568 -0.609868 0.0477013
0.372415 -0.609383 0.0476633
0.371147 -0.608708 0.0476106
0.370249 -0.608638 0.047605
0.369356 -0.608575 0.0476002
0.368553 -0.608661 0.0476069
0.367601 -0.608502 0.0475944
0.366924 -0.608797 0.0476175
0.366426 -0.609392 0.047664
0.364844 -0.608182 0.0475694
0.363545 -0.60744 0.0475113
0.361624 -0.605652 0.0473715
0.360679 -0.605494 0.0473592
0.359982 -0.605753 0.0473794
0 -0 0
0 -0 0
0.255876 -0.433648 0.0339181
0.255438 -0.433937 0.0339407
0.254571 -0.4335 0.0339065
0.253909 -0.433409 0.0338994
0.25284 -0.432623 0.033838
0.25121 -0.43087 0.0337008
0.251451 -0.432326 0.0338147
0.252565 -0.435292 0.0340467
0.252668 -0.436528 0.0341433
0.253867 -0.439665 0.0343887
0.253381 -0.439895 0.0344067
0.252601 -0.439613 0.0343846
0.251559 -0.438873 0.0343268
0.250715 -0.438476 0.0342957
0.250097 -0.438473 0.0342954
0.249814 -0.439057 0.0343412
0.248993 -0.438697 0.034313
0.247204 -0.436627 0.0341511
0.245017 -0.433841 0.0339332
0.242904 -0.431172 0.0337244
0.241007 -0.428875 0.0335447
0.239651 -0.427531 0.0334396
0.238977 -0.427401 0.0334295
0.238998 -0.428515 0.0335166
0.238915 -0.429447 0.0335895
0.238831 -0.430384 0.0336628
0.238632 -0.431117 0.0337201
0.239328 -0.433474 0.0339045
0.241417 -0.438374 0.0342878
0 -0 0
0.330757 -0.603682 0.0472174
0.328423 -0.600963 0.0470048
0.326825 -0.599582 0.0468968
0.325928 -0.599482 0.0468889
0.325488 -0.600222 0.0469468
0.324632 -0.600199 0.046945
0.323489 -0.599644 0.0469016
0.321497 -0.597508 0.0467345
0.318714 -0.593887 0.0464513
0 -0 0
0.255913 -0.479375 0.0374946
0.254866 -0.478675 0.0374399
0 -0 0
0 -0 0
0.315024 -0.596381 0.0466463
0.314833 -0.597609 0.0467424
0.313722 -0.597093 0.046702
0.312347 -0.59607 0.0466221
0.310617 -0.594362 0.0464885
0 -0 0
0 -0 0
0 -0 0
